ply
format ascii 1.0
element vertex 1236
property float x
property float y
property float z
property uchar red
property uchar green
property uchar blue
end_header
0.327069 0.049732 0.588000 147 179 201
0.328043 0.049732 0.588000 144 181 202
0.329576 0.049817 0.589000 145 182 203
0.331113 0.049901 0.590000 144 181 202
0.333779 0.050155 0.593000 144 181 202
0.334761 0.050155 0.593000 145 178 203
0.336875 0.050324 0.595000 145 178 203
0.338428 0.050409 0.596000 143 177 199
0.339415 0.050409 0.596000 146 180 202
0.340402 0.050409 0.596000 146 180 202
0.341389 0.050409 0.596000 148 182 204
0.342376 0.050409 0.596000 148 182 204
0.343363 0.050409 0.596000 149 183 205
0.343773 0.050324 0.595000 150 182 204
0.344758 0.050324 0.595000 151 183 205
0.345743 0.050324 0.595000 151 183 205
0.346146 0.050240 0.594000 151 183 205
0.347130 0.050240 0.594000 159 184 205
0.348113 0.050240 0.594000 147 172 193
0.349097 0.050240 0.594000 136 143 167
0.350081 0.050240 0.594000 133 140 164
0.351065 0.050240 0.594000 130 141 162
0.352048 0.050240 0.594000 133 144 165
0.353032 0.050240 0.594000 138 146 165
0.354016 0.050240 0.594000 139 147 166
0.354999 0.050240 0.594000 142 147 163
0.355983 0.050240 0.594000 142 147 163
0.357568 0.050324 0.595000 140 145 163
0.359156 0.050409 0.596000 140 145 163
0.360143 0.050409 0.596000 143 146 163
0.362342 0.050578 0.598000 145 148 165
0.366370 0.051001 0.603000 151 148 162
0.369196 0.051255 0.606000 153 150 164
0.370200 0.051255 0.606000 149 146 167
0.373653 0.051593 0.610000 140 137 158
0.376506 0.051847 0.613000 132 134 158
0.378753 0.052016 0.615000 139 141 165
0.379772 0.052016 0.615000 138 147 168
0.381409 0.052100 0.616000 144 153 174
0.383050 0.052185 0.617000 152 161 171
0.384072 0.052185 0.617000 169 178 188
0.316385 0.051828 0.601000 122 117 129
0.316852 0.051742 0.600000 90 99 120
0.317846 0.051742 0.600000 92 101 122
0.317245 0.051483 0.597000 86 106 121
0.317168 0.051311 0.595000 83 103 118
0.318153 0.051311 0.595000 85 102 118
0.317530 0.051052 0.592000 85 102 118
0.317434 0.050880 0.590000 88 105 119
0.318411 0.050880 0.590000 89 106 120
0.318305 0.050707 0.588000 87 107 120
0.318736 0.050621 0.587000 87 107 120
0.319708 0.050621 0.587000 87 109 121
0.320134 0.050535 0.586000 88 110 122
0.321105 0.050535 0.586000 91 112 129
0.322075 0.050535 0.586000 95 116 133
0.323046 0.050535 0.586000 104 129 154
0.324016 0.050535 0.586000 147 172 197
0.324986 0.050535 0.586000 147 179 199
0.326513 0.050621 0.587000 148 180 200
0.327485 0.050621 0.587000 148 180 200
0.329017 0.050707 0.588000 149 181 201
0.330552 0.050793 0.589000 148 180 202
0.332653 0.050966 0.591000 147 179 201
0.333632 0.050966 0.591000 143 177 199
0.335743 0.051138 0.593000 142 176 198
0.337861 0.051311 0.595000 141 178 199
0.338846 0.051311 0.595000 143 180 201
0.339831 0.051311 0.595000 144 181 202
0.341389 0.051397 0.596000 145 182 203
0.342376 0.051397 0.596000 145 179 201
0.343363 0.051397 0.596000 148 182 204
0.343773 0.051311 0.595000 150 182 204
0.344758 0.051311 0.595000 150 182 204
0.345743 0.051311 0.595000 151 183 205
0.346146 0.051225 0.594000 151 183 205
0.347130 0.051225 0.594000 152 182 203
0.348113 0.051225 0.594000 150 180 201
0.348509 0.051138 0.593000 134 144 170
0.349491 0.051138 0.593000 128 138 164
0.350474 0.051138 0.593000 126 139 164
0.351456 0.051138 0.593000 125 138 163
0.352438 0.051138 0.593000 132 141 162
0.353420 0.051138 0.593000 131 140 161
0.354402 0.051138 0.593000 131 140 161
0.355384 0.051138 0.593000 134 143 164
0.356967 0.051225 0.594000 130 141 162
0.358553 0.051311 0.595000 130 141 162
0.359538 0.051311 0.595000 133 144 165
0.361736 0.051483 0.597000 134 145 166
0.364547 0.051742 0.600000 136 143 165
0.369196 0.052259 0.606000 136 143 165
0.370200 0.052259 0.606000 132 141 162
0.372428 0.052432 0.608000 131 140 161
0.375892 0.052777 0.612000 127 145 170
0.378137 0.052949 0.614000 131 149 174
0.379154 0.052949 0.614000 132 154 180
0.380790 0.053036 0.615000 146 168 194
0.382429 0.053122 0.616000 153 168 183
0.383450 0.053122 0.616000 164 179 194
0.316385 0.052825 0.601000 146 141 153
0.316852 0.052737 0.600000 95 99 122
0.317846 0.052737 0.600000 96 100 123
0.317245 0.052473 0.597000 87 104 120
0.317168 0.052298 0.595000 85 102 118
0.318153 0.052298 0.595000 82 102 117
0.317530 0.052034 0.592000 82 102 117
0.317434 0.051858 0.590000 83 103 116
0.318411 0.051858 0.590000 86 106 119
0.318305 0.051682 0.588000 85 105 118
0.318736 0.051594 0.587000 86 106 119
0.319708 0.051594 0.587000 86 108 120
0.320134 0.051506 0.586000 87 109 121
0.321105 0.051506 0.586000 89 111 125
0.322075 0.051506 0.586000 93 115 129
0.323046 0.051506 0.586000 85 110 135
0.324016 0.051506 0.586000 148 173 198
0.324986 0.051506 0.586000 146 176 195
0.326513 0.051594 0.587000 148 178 197
0.327485 0.051594 0.587000 148 180 200
0.329017 0.051682 0.588000 149 181 201
0.330552 0.051770 0.589000 150 180 201
0.332653 0.051946 0.591000 149 179 200
0.333632 0.051946 0.591000 145 177 199
0.335743 0.052122 0.593000 145 177 199
0.337861 0.052298 0.595000 141 178 199
0.338846 0.052298 0.595000 143 180 201
0.339831 0.052298 0.595000 145 179 199
0.341389 0.052385 0.596000 147 181 201
0.342376 0.052385 0.596000 147 179 199
0.343363 0.052385 0.596000 148 180 200
0.343773 0.052298 0.595000 149 181 201
0.344758 0.052298 0.595000 149 181 201
0.345743 0.052298 0.595000 150 182 202
0.346146 0.052210 0.594000 149 181 201
0.347130 0.052210 0.594000 150 182 202
0.348113 0.052210 0.594000 150 182 202
0.348509 0.052122 0.593000 129 147 172
0.349491 0.052122 0.593000 122 140 165
0.350474 0.052122 0.593000 125 138 163
0.351456 0.052122 0.593000 120 133 158
0.352438 0.052122 0.593000 125 136 159
0.353420 0.052122 0.593000 125 136 159
0.354402 0.052122 0.593000 125 136 159
0.355384 0.052122 0.593000 123 134 157
0.356967 0.052210 0.594000 123 139 160
0.358553 0.052298 0.595000 125 141 162
0.359538 0.052298 0.595000 125 141 162
0.361736 0.052473 0.597000 125 141 162
0.364547 0.052737 0.600000 127 140 165
0.371421 0.053440 0.608000 140 158 183
0.372428 0.053440 0.608000 136 154 179
0.375892 0.053792 0.612000 133 164 189
0.378137 0.053968 0.614000 142 173 198
0.379154 0.053968 0.614000 144 173 199
0.380790 0.054055 0.615000 145 174 200
0.382429 0.054143 0.616000 151 174 191
0.383450 0.054143 0.616000 161 184 201
0.385094 0.054231 0.617000 171 181 188
0.316324 0.053642 0.599000 92 94 118
0.317316 0.053642 0.599000 96 98 122
0.317245 0.053463 0.597000 85 100 117
0.317168 0.053284 0.595000 83 98 115
0.318153 0.053284 0.595000 79 101 115
0.317530 0.053016 0.592000 78 100 114
0.317434 0.052836 0.590000 80 102 116
0.318411 0.052836 0.590000 82 104 118
0.318305 0.052657 0.588000 82 104 116
0.318736 0.052568 0.587000 80 102 114
0.319708 0.052568 0.587000 84 106 118
0.320134 0.052478 0.586000 86 108 120
0.321105 0.052478 0.586000 87 108 125
0.322075 0.052478 0.586000 91 112 129
0.323046 0.052478 0.586000 82 107 132
0.324016 0.052478 0.586000 137 162 187
0.324986 0.052478 0.586000 149 179 198
0.326513 0.052568 0.587000 148 178 197
0.327485 0.052568 0.587000 149 179 200
0.328457 0.052568 0.587000 150 180 201
0.330552 0.052747 0.589000 150 180 201
0.332090 0.052836 0.590000 150 180 201
0.333067 0.052836 0.590000 147 179 201
0.335177 0.053016 0.592000 145 177 199
0.337293 0.053195 0.594000 143 177 197
0.338276 0.053195 0.594000 145 179 199
0.339831 0.053284 0.595000 146 180 200
0.340817 0.053284 0.595000 147 181 201
0.342376 0.053374 0.596000 145 179 199
0.342787 0.053284 0.595000 145 179 199
0.343773 0.053284 0.595000 147 181 201
0.344758 0.053284 0.595000 147 181 201
0.345162 0.053195 0.594000 147 181 201
0.345563 0.053105 0.593000 147 181 201
0.346545 0.053105 0.593000 150 182 202
0.347527 0.053105 0.593000 149 181 201
0.347922 0.053016 0.592000 144 164 188
0.348902 0.053016 0.592000 120 140 164
0.350474 0.053105 0.593000 123 138 164
0.350863 0.053016 0.592000 119 134 160
0.351843 0.053016 0.592000 121 134 159
0.352824 0.053016 0.592000 121 134 159
0.353804 0.053016 0.592000 120 135 159
0.354784 0.053016 0.592000 118 133 157
0.355765 0.053016 0.592000 117 137 159
0.357348 0.053105 0.593000 121 141 163
0.358330 0.053105 0.593000 126 148 172
0.360524 0.053284 0.595000 134 156 180
0.363332 0.053553 0.598000 140 158 183
0.371421 0.054448 0.608000 144 169 192
0.372428 0.054448 0.608000 145 170 193
0.374049 0.054538 0.609000 136 172 198
0.376906 0.054807 0.612000 143 179 205
0.377919 0.054807 0.612000 145 176 203
0.380171 0.054986 0.614000 145 176 203
0.381188 0.054986 0.614000 151 176 197
0.382205 0.054986 0.614000 160 185 206
0.384470 0.055165 0.616000 166 179 188
0.316324 0.054636 0.599000 100 100 120
0.317316 0.054636 0.599000 96 96 116
0.317245 0.054453 0.597000 85 100 117
0.317168 0.054271 0.595000 82 97 114
0.318153 0.054271 0.595000 77 99 113
0.318066 0.054088 0.593000 74 96 110
0.317972 0.053906 0.591000 75 98 115
0.318951 0.053906 0.591000 77 100 117
0.318847 0.053724 0.589000 81 101 116
0.319279 0.053632 0.588000 78 98 113
0.320253 0.053632 0.588000 81 101 116
0.320134 0.053450 0.586000 83 103 118
0.321105 0.053450 0.586000 86 105 123
0.322075 0.053450 0.586000 88 107 125
0.323046 0.053450 0.586000 87 112 137
0.324016 0.053450 0.586000 109 134 159
0.324986 0.053450 0.586000 153 180 202
0.325957 0.053450 0.586000 148 175 197
0.326927 0.053450 0.586000 150 180 201
0.328457 0.053541 0.587000 151 181 202
0.329991 0.053632 0.588000 150 180 201
0.330964 0.053632 0.588000 149 179 200
0.332503 0.053724 0.589000 149 179 202
0.334610 0.053906 0.591000 148 178 201
0.336725 0.054088 0.593000 145 179 199
0.337707 0.054088 0.593000 146 180 200
0.339260 0.054180 0.594000 147 181 201
0.340817 0.054271 0.595000 147 181 201
0.341802 0.054271 0.595000 147 181 201
0.342787 0.054271 0.595000 147 181 201
0.343195 0.054180 0.594000 144 181 202
0.344179 0.054180 0.594000 144 181 202
0.344581 0.054088 0.593000 145 182 203
0.345563 0.054088 0.593000 144 181 202
0.346545 0.054088 0.593000 147 181 201
0.346941 0.053997 0.592000 145 179 199
0.347922 0.053997 0.592000 147 169 193
0.348902 0.053997 0.592000 117 139 163
0.349883 0.053997 0.592000 120 135 161
0.350270 0.053906 0.591000 119 134 160
0.351249 0.053906 0.591000 117 135 160
0.352228 0.053906 0.591000 118 136 161
0.353206 0.053906 0.591000 117 139 163
0.354185 0.053906 0.591000 120 142 166
0.355164 0.053906 0.591000 134 161 185
0.356745 0.053997 0.592000 136 163 187
0.357726 0.053997 0.592000 136 166 189
0.359312 0.054088 0.593000 142 172 195
0.363332 0.054545 0.598000 147 172 195
0.364322 0.054545 0.598000 153 178 201
0.365313 0.054545 0.598000 150 177 201
0.369366 0.055001 0.603000 147 174 198
0.372821 0.055365 0.607000 144 180 206
0.375674 0.055639 0.610000 145 181 207
0.376684 0.055639 0.610000 147 180 207
0.380171 0.056004 0.614000 147 180 207
0.381188 0.056004 0.614000 156 181 204
0.382205 0.056004 0.614000 163 188 211
0.384470 0.056186 0.616000 167 182 195
0.316852 0.055722 0.600000 133 129 148
0.317846 0.055722 0.600000 96 92 111
0.317245 0.055443 0.597000 82 96 116
0.317168 0.055258 0.595000 81 95 115
0.318153 0.055258 0.595000 74 95 112
0.318066 0.055072 0.593000 72 93 110
0.317972 0.054886 0.591000 72 93 110
0.318951 0.054886 0.591000 74 95 112
0.319388 0.054793 0.590000 78 95 111
0.319279 0.054608 0.588000 77 94 110
0.320253 0.054608 0.588000 79 98 116
0.320680 0.054515 0.587000 79 98 116
0.321105 0.054422 0.586000 82 101 119
0.322075 0.054422 0.586000 85 104 122
0.323046 0.054422 0.586000 88 108 130
0.324016 0.054422 0.586000 82 102 124
0.324986 0.054422 0.586000 143 170 194
0.325957 0.054422 0.586000 148 175 199
0.326927 0.054422 0.586000 150 180 203
0.327898 0.054422 0.586000 151 181 204
0.329429 0.054515 0.587000 150 180 203
0.330402 0.054515 0.587000 149 179 202
0.331938 0.054608 0.588000 150 180 203
0.334044 0.054793 0.590000 148 178 201
0.335589 0.054886 0.591000 145 179 199
0.336568 0.054886 0.591000 147 181 201
0.338118 0.054979 0.592000 147 181 201
0.339671 0.055072 0.593000 147 181 201
0.341228 0.055165 0.594000 147 181 201
0.342211 0.055165 0.594000 147 181 201
0.342617 0.055072 0.593000 146 180 202
0.343599 0.055072 0.593000 143 177 199
0.344000 0.054979 0.592000 143 180 201
0.344981 0.054979 0.592000 143 180 201
0.345961 0.054979 0.592000 146 180 202
0.346355 0.054886 0.591000 145 179 201
0.346746 0.054793 0.590000 148 175 199
0.347723 0.054793 0.590000 129 156 180
0.348700 0.054793 0.590000 117 139 165
0.349085 0.054700 0.589000 120 142 168
0.350060 0.054700 0.589000 126 153 177
0.351036 0.054700 0.589000 131 158 182
0.352011 0.054700 0.589000 140 172 194
0.352987 0.054700 0.589000 138 170 192
0.353962 0.054700 0.589000 142 173 198
0.355540 0.054793 0.590000 144 175 200
0.356517 0.054793 0.590000 148 180 202
0.358100 0.054886 0.591000 149 181 203
0.360294 0.055072 0.593000 150 180 203
0.361276 0.055072 0.593000 151 181 204
0.363480 0.055258 0.595000 152 179 203
0.368140 0.055815 0.601000 151 178 202
0.371593 0.056186 0.605000 151 182 207
0.372595 0.056186 0.605000 150 181 206
0.376067 0.056558 0.609000 151 182 207
0.379552 0.056929 0.613000 152 183 208
0.380567 0.056929 0.613000 156 181 206
0.381582 0.056929 0.613000 163 188 213
0.383846 0.057115 0.615000 169 186 202
0.316852 0.056717 0.600000 152 149 165
0.317846 0.056717 0.600000 95 92 108
0.317777 0.056528 0.598000 80 91 112
0.317168 0.056244 0.595000 77 88 109
0.318153 0.056244 0.595000 71 92 109
0.318602 0.056150 0.594000 68 89 106
0.318510 0.055961 0.592000 69 88 106
0.319490 0.055961 0.592000 73 92 110
0.319388 0.055772 0.590000 77 92 109
0.319822 0.055677 0.589000 76 91 108
0.320798 0.055677 0.589000 76 93 109
0.320680 0.055488 0.587000 77 94 110
0.321105 0.055394 0.586000 77 98 115
0.322075 0.055394 0.586000 78 99 116
0.323046 0.055394 0.586000 86 104 127
0.324016 0.055394 0.586000 88 106 129
0.324986 0.055394 0.586000 112 141 167
0.325957 0.055394 0.586000 142 171 197
0.326927 0.055394 0.586000 143 177 199
0.327898 0.055394 0.586000 148 182 204
0.329429 0.055488 0.587000 152 179 201
0.330402 0.055488 0.587000 153 180 202
0.331938 0.055583 0.588000 153 180 202
0.334044 0.055772 0.590000 151 178 200
0.335589 0.055866 0.591000 147 179 199
0.336568 0.055866 0.591000 150 182 202
0.338118 0.055961 0.592000 150 182 202
0.339671 0.056055 0.593000 149 181 201
0.341228 0.056150 0.594000 149 181 201
0.342211 0.056150 0.594000 149 181 201
0.342617 0.056055 0.593000 146 180 202
0.343599 0.056055 0.593000 143 177 199
0.344000 0.055961 0.592000 143 177 199
0.344981 0.055961 0.592000 145 179 201
0.345961 0.055961 0.592000 146 180 202
0.346355 0.055866 0.591000 145 179 201
0.346746 0.055772 0.590000 142 176 198
0.347723 0.055772 0.590000 133 167 189
0.348700 0.055772 0.590000 126 160 182
0.349085 0.055677 0.589000 133 167 189
0.350060 0.055677 0.589000 134 167 192
0.351036 0.055677 0.589000 139 172 197
0.352011 0.055677 0.589000 138 174 198
0.352987 0.055677 0.589000 138 174 198
0.353962 0.055677 0.589000 141 177 201
0.355540 0.055772 0.590000 145 181 205
0.356517 0.055772 0.590000 145 181 205
0.358100 0.055866 0.591000 146 182 206
0.360294 0.056055 0.593000 152 186 208
0.361276 0.056055 0.593000 150 184 206
0.363480 0.056244 0.595000 152 182 205
0.368140 0.056811 0.601000 152 182 205
0.371593 0.057190 0.605000 153 182 208
0.372595 0.057190 0.605000 152 181 207
0.376067 0.057568 0.609000 151 182 207
0.379552 0.057946 0.613000 152 183 208
0.380567 0.057946 0.613000 155 182 206
0.381582 0.057946 0.613000 161 188 212
0.383846 0.058135 0.615000 170 189 209
0.385490 0.058229 0.616000 218 237 255
0.316385 0.057808 0.601000 204 199 207
0.316852 0.057712 0.600000 169 166 182
0.317846 0.057712 0.600000 88 85 101
0.317245 0.057423 0.597000 77 88 111
0.317168 0.057231 0.595000 73 84 107
0.318153 0.057231 0.595000 66 87 106
0.318602 0.057135 0.594000 66 87 106
0.318510 0.056942 0.592000 68 87 105
0.319490 0.056942 0.592000 68 87 105
0.319388 0.056750 0.590000 73 90 106
0.319279 0.056558 0.588000 73 90 106
0.320253 0.056558 0.588000 69 89 104
0.320680 0.056461 0.587000 72 92 107
0.321105 0.056365 0.586000 69 92 111
0.322075 0.056365 0.586000 69 92 111
0.323046 0.056365 0.586000 82 97 121
0.324016 0.056365 0.586000 91 106 130
0.324986 0.056365 0.586000 101 127 154
0.325957 0.056365 0.586000 146 172 199
0.326927 0.056365 0.586000 140 177 198
0.327898 0.056365 0.586000 145 182 203
0.329429 0.056461 0.587000 151 181 202
0.330402 0.056461 0.587000 152 182 203
0.331938 0.056558 0.588000 153 180 202
0.333478 0.056654 0.589000 153 180 202
0.335589 0.056846 0.591000 149 179 200
0.336568 0.056846 0.591000 151 181 202
0.338118 0.056942 0.592000 151 181 202
0.339098 0.056942 0.592000 149 179 200
0.340653 0.057039 0.593000 149 179 200
0.341635 0.057039 0.593000 149 179 200
0.342039 0.056942 0.592000 148 180 202
0.343020 0.056942 0.592000 147 179 201
0.343419 0.056846 0.591000 147 179 201
0.344398 0.056846 0.591000 147 179 201
0.345377 0.056846 0.591000 146 180 202
0.345769 0.056750 0.590000 145 179 201
0.346159 0.056654 0.589000 140 177 198
0.346545 0.056558 0.588000 137 174 195
0.347518 0.056558 0.588000 137 176 196
0.347900 0.056461 0.587000 136 175 195
0.348872 0.056461 0.587000 138 175 196
0.349844 0.056461 0.587000 143 180 201
0.350816 0.056461 0.587000 140 178 201
0.351788 0.056461 0.587000 142 180 203
0.352760 0.056461 0.587000 142 180 203
0.353732 0.056461 0.587000 144 182 205
0.355309 0.056558 0.588000 145 181 205
0.356888 0.056654 0.589000 145 181 205
0.359079 0.056846 0.591000 147 181 203
0.360058 0.056846 0.591000 149 183 205
0.362258 0.057039 0.593000 153 183 206
0.366303 0.057520 0.598000 153 183 206
0.370978 0.058097 0.604000 152 181 207
0.371979 0.058097 0.604000 153 182 208
0.376067 0.058578 0.609000 152 184 206
0.379552 0.058962 0.613000 151 183 205
0.380567 0.058962 0.613000 153 183 206
0.381582 0.058962 0.613000 158 188 211
0.383221 0.059059 0.614000 172 192 214
0.385490 0.059251 0.616000 221 241 255
0.316385 0.058805 0.601000 199 194 202
0.316852 0.058707 0.600000 172 168 187
0.317846 0.058707 0.600000 85 81 100
0.317245 0.058413 0.597000 74 85 106
0.317701 0.058316 0.596000 72 83 104
0.318688 0.058316 0.596000 66 85 105
0.318602 0.058120 0.594000 66 85 105
0.318510 0.057924 0.592000 66 85 105
0.319490 0.057924 0.592000 66 85 105
0.319388 0.057728 0.590000 68 85 101
0.319279 0.057533 0.588000 67 84 100
0.320253 0.057533 0.588000 66 86 101
0.320680 0.057435 0.587000 71 91 106
0.321105 0.057337 0.586000 68 89 108
0.322075 0.057337 0.586000 68 89 108
0.323046 0.057337 0.586000 76 94 117
0.324016 0.057337 0.586000 82 100 123
0.324986 0.057337 0.586000 89 116 140
0.325957 0.057337 0.586000 148 175 199
0.326927 0.057337 0.586000 139 177 200
0.327898 0.057337 0.586000 143 181 204
0.328868 0.057337 0.586000 149 181 203
0.329839 0.057337 0.586000 149 181 203
0.331374 0.057435 0.587000 151 181 202
0.332912 0.057533 0.588000 151 181 202
0.334454 0.057631 0.589000 149 179 200
0.335429 0.057631 0.589000 150 180 201
0.336976 0.057728 0.590000 150 180 201
0.338525 0.057826 0.591000 149 179 200
0.339504 0.057826 0.591000 149 179 202
0.340483 0.057826 0.591000 149 179 202
0.340884 0.057728 0.590000 148 180 202
0.341861 0.057728 0.590000 148 180 202
0.342838 0.057728 0.590000 148 180 202
0.343232 0.057631 0.589000 147 179 201
0.344208 0.057631 0.589000 147 181 203
0.344597 0.057533 0.588000 145 179 201
0.345571 0.057533 0.588000 140 177 198
0.345955 0.057435 0.587000 140 177 198
0.346927 0.057435 0.587000 140 179 199
0.347900 0.057435 0.587000 139 178 198
0.348277 0.057337 0.586000 138 177 197
0.349248 0.057337 0.586000 142 181 201
0.350218 0.057337 0.586000 143 181 204
0.351189 0.057337 0.586000 144 182 205
0.352159 0.057337 0.586000 143 181 204
0.353130 0.057337 0.586000 144 182 205
0.354704 0.057435 0.587000 145 181 205
0.356282 0.057533 0.588000 145 181 205
0.358471 0.057728 0.590000 147 179 201
0.359448 0.057728 0.590000 149 181 203
0.361647 0.057924 0.592000 151 181 204
0.366303 0.058511 0.598000 151 181 204
0.370364 0.059000 0.603000 150 181 206
0.371363 0.059000 0.603000 152 183 208
0.374831 0.059392 0.607000 152 184 206
0.377694 0.059685 0.610000 150 182 204
0.379946 0.059881 0.612000 151 183 205
0.380960 0.059881 0.612000 152 184 206
0.383221 0.060077 0.614000 157 184 204
0.384864 0.060175 0.615000 215 242 255
0.316385 0.059801 0.601000 202 197 205
0.316852 0.059702 0.600000 159 156 177
0.317846 0.059702 0.600000 100 97 118
0.317245 0.059403 0.597000 76 87 110
0.317701 0.059304 0.596000 72 83 106
0.318688 0.059304 0.596000 68 84 105
0.318602 0.059105 0.594000 67 83 104
0.318510 0.058906 0.592000 68 84 105
0.319490 0.058906 0.592000 67 83 104
0.319388 0.058707 0.590000 62 82 97
0.319822 0.058607 0.589000 64 84 99
0.320798 0.058607 0.589000 64 84 99
0.320680 0.058408 0.587000 66 86 101
0.321105 0.058309 0.586000 66 85 105
0.322075 0.058309 0.586000 66 85 105
0.323046 0.058309 0.586000 70 90 112
0.324016 0.058309 0.586000 79 99 121
0.324986 0.058309 0.586000 80 110 131
0.325957 0.058309 0.586000 137 167 188
0.326927 0.058309 0.586000 138 177 197
0.327898 0.058309 0.586000 142 181 201
0.328868 0.058309 0.586000 147 181 203
0.329839 0.058309 0.586000 146 180 202
0.331374 0.058408 0.587000 151 181 202
0.332912 0.058508 0.588000 151 181 202
0.334454 0.058607 0.589000 149 179 200
0.335429 0.058607 0.589000 149 179 200
0.336976 0.058707 0.590000 149 181 201
0.338525 0.058806 0.591000 148 180 200
0.339504 0.058806 0.591000 148 180 200
0.340483 0.058806 0.591000 147 179 199
0.340884 0.058707 0.590000 149 181 203
0.341861 0.058707 0.590000 147 179 201
0.342838 0.058707 0.590000 147 179 201
0.343232 0.058607 0.589000 147 179 201
0.344208 0.058607 0.589000 146 180 202
0.344597 0.058508 0.588000 145 179 201
0.345571 0.058508 0.588000 141 177 201
0.345955 0.058408 0.587000 143 179 203
0.346927 0.058408 0.587000 141 177 201
0.347900 0.058408 0.587000 141 177 201
0.348277 0.058309 0.586000 146 182 206
0.349248 0.058309 0.586000 143 179 203
0.350218 0.058309 0.586000 143 181 204
0.351189 0.058309 0.586000 144 182 205
0.352159 0.058309 0.586000 144 180 204
0.353130 0.058309 0.586000 144 180 204
0.354704 0.058408 0.587000 145 181 205
0.356282 0.058508 0.588000 145 181 205
0.358471 0.058707 0.590000 145 178 203
0.359448 0.058707 0.590000 145 178 203
0.361647 0.058906 0.592000 149 180 205
0.366303 0.059503 0.598000 150 181 206
0.370364 0.060000 0.603000 149 180 205
0.371363 0.060000 0.603000 150 181 206
0.374831 0.060398 0.607000 152 183 208
0.377694 0.060697 0.610000 150 181 206
0.379946 0.060896 0.612000 150 183 208
0.380960 0.060896 0.612000 148 181 206
0.383221 0.061095 0.614000 159 184 209
0.384864 0.061194 0.615000 218 243 255
0.310448 0.061000 0.603000 221 222 235
0.311446 0.061000 0.603000 215 216 229
0.312445 0.061000 0.603000 223 221 230
0.312924 0.060899 0.602000 225 223 232
0.313921 0.060899 0.602000 179 173 188
0.314918 0.060899 0.602000 165 159 174
0.315390 0.060798 0.601000 191 185 202
0.315859 0.060697 0.600000 143 137 154
0.315796 0.060495 0.598000 95 94 121
0.316787 0.060495 0.598000 84 83 110
0.317245 0.060393 0.597000 73 83 109
0.317168 0.060191 0.595000 71 81 107
0.318153 0.060191 0.595000 69 83 105
0.318602 0.060090 0.594000 70 84 106
0.318510 0.059888 0.592000 69 85 106
0.319490 0.059888 0.592000 68 84 105
0.319388 0.059685 0.590000 64 84 99
0.319279 0.059483 0.588000 64 84 99
0.320253 0.059483 0.588000 61 81 96
0.320680 0.059382 0.587000 64 84 99
0.321105 0.059281 0.586000 64 83 103
0.322075 0.059281 0.586000 65 84 104
0.323046 0.059281 0.586000 66 86 108
0.323463 0.059179 0.585000 74 94 116
0.324432 0.059179 0.585000 68 95 117
0.325957 0.059281 0.586000 119 146 168
0.326927 0.059281 0.586000 140 177 198
0.327898 0.059281 0.586000 141 178 199
0.328868 0.059281 0.586000 145 182 203
0.329839 0.059281 0.586000 144 181 202
0.331374 0.059382 0.587000 149 181 201
0.332912 0.059483 0.588000 148 180 200
0.333886 0.059483 0.588000 145 177 197
0.334859 0.059483 0.588000 145 177 197
0.336404 0.059584 0.589000 146 180 200
0.337380 0.059584 0.589000 146 180 200
0.338355 0.059584 0.589000 146 180 200
0.339331 0.059584 0.589000 146 180 200
0.340306 0.059584 0.589000 147 181 203
0.341282 0.059584 0.589000 145 179 201
0.341676 0.059483 0.588000 145 178 203
0.342650 0.059483 0.588000 146 179 204
0.343623 0.059483 0.588000 145 178 203
0.344011 0.059382 0.587000 146 179 204
0.344983 0.059382 0.587000 146 179 204
0.345366 0.059281 0.586000 146 179 204
0.346336 0.059281 0.586000 146 179 204
0.347307 0.059281 0.586000 146 179 204
0.348277 0.059281 0.586000 146 182 206
0.349248 0.059281 0.586000 143 179 203
0.349621 0.059179 0.585000 143 179 203
0.350589 0.059179 0.585000 144 180 204
0.352159 0.059281 0.586000 143 179 203
0.353130 0.059281 0.586000 143 179 203
0.354100 0.059281 0.586000 144 180 204
0.356282 0.059483 0.588000 145 181 205
0.358471 0.059685 0.590000 145 178 203
0.359448 0.059685 0.590000 145 178 203
0.361647 0.059888 0.592000 147 180 205
0.366303 0.060495 0.598000 147 180 205
0.370364 0.061000 0.603000 147 180 205
0.371363 0.061000 0.603000 147 180 205
0.374831 0.061405 0.607000 148 181 206
0.377694 0.061708 0.610000 147 180 205
0.379946 0.061911 0.612000 150 183 208
0.380960 0.061911 0.612000 150 183 208
0.382597 0.062012 0.613000 156 181 206
0.384238 0.062113 0.614000 201 226 251
0.309418 0.061795 0.601000 209 210 223
0.310413 0.061795 0.601000 202 203 216
0.311409 0.061795 0.601000 209 207 223
0.312404 0.061795 0.601000 190 188 204
0.313399 0.061795 0.601000 132 128 151
0.314395 0.061795 0.601000 106 102 125
0.314865 0.061692 0.600000 108 103 129
0.314806 0.061486 0.598000 103 98 124
0.315796 0.061486 0.598000 88 92 117
0.316787 0.061486 0.598000 81 85 110
0.316714 0.061281 0.596000 68 81 106
0.317168 0.061178 0.595000 65 78 103
0.318153 0.061178 0.595000 65 79 101
0.318066 0.060972 0.593000 67 81 103
0.317972 0.060766 0.591000 67 81 101
0.318951 0.060766 0.591000 67 81 101
0.319388 0.060664 0.590000 64 83 101
0.319279 0.060458 0.588000 66 85 103
0.320253 0.060458 0.588000 64 83 101
0.320680 0.060355 0.587000 65 84 102
0.321105 0.060252 0.586000 65 84 104
0.322075 0.060252 0.586000 65 84 104
0.322494 0.060150 0.585000 64 86 108
0.323463 0.060150 0.585000 71 93 115
0.324432 0.060150 0.585000 76 103 125
0.325957 0.060252 0.586000 89 116 138
0.326927 0.060252 0.586000 141 175 197
0.327898 0.060252 0.586000 143 177 199
0.328868 0.060252 0.586000 147 181 201
0.329839 0.060252 0.586000 146 180 200
0.331374 0.060355 0.587000 149 181 201
0.332346 0.060355 0.587000 148 180 200
0.333886 0.060458 0.588000 145 177 197
0.334859 0.060458 0.588000 145 177 197
0.335833 0.060458 0.588000 143 177 197
0.336807 0.060458 0.588000 146 180 200
0.337781 0.060458 0.588000 145 179 199
0.338755 0.060458 0.588000 145 179 199
0.339728 0.060458 0.588000 145 179 201
0.340702 0.060458 0.588000 146 180 202
0.341095 0.060355 0.587000 145 178 203
0.341484 0.060252 0.586000 146 179 204
0.342455 0.060252 0.586000 145 178 203
0.343425 0.060252 0.586000 145 178 203
0.344395 0.060252 0.586000 146 179 204
0.345366 0.060252 0.586000 145 178 203
0.345745 0.060150 0.585000 145 181 205
0.346714 0.060150 0.585000 146 182 206
0.347089 0.060047 0.584000 145 181 205
0.348056 0.060047 0.584000 143 179 203
0.349023 0.060047 0.584000 143 179 203
0.349990 0.060047 0.584000 145 181 205
0.351558 0.060150 0.585000 143 179 203
0.352527 0.060150 0.585000 141 177 201
0.353496 0.060150 0.585000 143 179 203
0.355676 0.060355 0.587000 145 181 205
0.358471 0.060664 0.590000 144 181 202
0.359448 0.060664 0.590000 144 181 202
0.361647 0.060869 0.592000 146 180 202
0.366303 0.061486 0.598000 145 179 201
0.370364 0.062000 0.603000 144 180 204
0.371363 0.062000 0.603000 145 181 205
0.374831 0.062412 0.607000 148 181 206
0.377694 0.062720 0.610000 147 180 205
0.379946 0.062926 0.612000 150 183 208
0.380960 0.062926 0.612000 152 185 210
0.381973 0.062926 0.612000 162 186 214
0.384238 0.063131 0.614000 175 199 227
0.308903 0.062687 0.600000 184 184 202
0.309897 0.062687 0.600000 150 150 168
0.310891 0.062687 0.600000 131 133 157
0.311364 0.062582 0.599000 121 123 147
0.312356 0.062582 0.599000 123 121 151
0.313348 0.062582 0.599000 113 111 141
0.313816 0.062478 0.598000 107 103 131
0.314279 0.062373 0.597000 103 99 127
0.315268 0.062373 0.597000 90 96 123
0.315727 0.062269 0.596000 81 87 114
0.316183 0.062164 0.595000 69 82 107
0.316102 0.061955 0.593000 69 82 107
0.317084 0.061955 0.593000 65 79 101
0.317530 0.061851 0.592000 67 81 103
0.317434 0.061642 0.590000 66 82 101
0.318411 0.061642 0.590000 64 80 99
0.318305 0.061433 0.588000 60 79 97
0.318736 0.061329 0.587000 64 83 101
0.319708 0.061329 0.587000 63 84 101
0.320134 0.061224 0.586000 63 84 101
0.320557 0.061120 0.585000 65 86 105
0.321525 0.061120 0.585000 66 87 106
0.322494 0.061120 0.585000 64 89 110
0.323463 0.061120 0.585000 71 96 117
0.324432 0.061120 0.585000 71 101 122
0.325401 0.061120 0.585000 80 110 131
0.326369 0.061120 0.585000 135 169 191
0.327898 0.061224 0.586000 143 177 199
0.328868 0.061224 0.586000 147 181 203
0.329839 0.061224 0.586000 146 180 202
0.331374 0.061329 0.587000 149 181 201
0.332346 0.061329 0.587000 148 180 200
0.333886 0.061433 0.588000 145 177 197
0.334859 0.061433 0.588000 144 176 196
0.335833 0.061433 0.588000 143 177 197
0.336807 0.061433 0.588000 146 180 200
0.337781 0.061433 0.588000 145 179 199
0.338178 0.061329 0.587000 143 177 197
0.339151 0.061329 0.587000 143 177 199
0.340123 0.061329 0.587000 146 180 202
0.340514 0.061224 0.586000 145 178 203
0.341484 0.061224 0.586000 146 179 204
0.342455 0.061224 0.586000 145 181 205
0.342839 0.061120 0.585000 141 177 201
0.343808 0.061120 0.585000 140 178 201
0.344777 0.061120 0.585000 143 181 204
0.345745 0.061120 0.585000 143 181 204
0.346122 0.061015 0.584000 143 181 204
0.347089 0.061015 0.584000 143 181 204
0.348056 0.061015 0.584000 142 180 203
0.349023 0.061015 0.584000 143 179 203
0.349990 0.061015 0.584000 144 180 204
0.350957 0.061015 0.584000 143 179 203
0.351924 0.061015 0.584000 143 179 203
0.353496 0.061120 0.585000 145 182 203
0.355676 0.061329 0.587000 145 182 203
0.358471 0.061642 0.590000 146 180 202
0.359448 0.061642 0.590000 147 181 203
0.362258 0.061955 0.593000 147 181 203
0.369366 0.063000 0.603000 145 179 201
0.370364 0.063000 0.603000 145 179 201
0.371363 0.063000 0.603000 147 181 203
0.374831 0.063418 0.607000 148 182 204
0.377694 0.063732 0.610000 148 182 204
0.379946 0.063941 0.612000 149 183 205
0.380960 0.063941 0.612000 152 186 208
0.381973 0.063941 0.612000 159 188 214
0.383612 0.064045 0.613000 158 187 213
0.308903 0.063682 0.600000 126 130 153
0.309897 0.063682 0.600000 130 134 157
0.310891 0.063682 0.600000 122 131 154
0.311364 0.063576 0.599000 120 129 152
0.312356 0.063576 0.599000 116 124 150
0.313348 0.063576 0.599000 108 116 142
0.313816 0.063470 0.598000 102 108 135
0.314279 0.063363 0.597000 98 104 131
0.315268 0.063363 0.597000 91 105 127
0.315727 0.063257 0.596000 83 97 119
0.316183 0.063151 0.595000 74 92 115
0.316102 0.062939 0.593000 75 93 116
0.317084 0.062939 0.593000 73 91 114
0.317530 0.062833 0.592000 69 87 110
0.317434 0.062620 0.590000 68 87 107
0.318411 0.062620 0.590000 67 86 106
0.318305 0.062408 0.588000 63 84 103
0.318736 0.062302 0.587000 67 88 107
0.319708 0.062302 0.587000 65 88 107
0.320134 0.062196 0.586000 66 89 108
0.320557 0.062090 0.585000 61 91 112
0.321525 0.062090 0.585000 58 88 109
0.322494 0.062090 0.585000 65 97 117
0.323463 0.062090 0.585000 87 119 139
0.324432 0.062090 0.585000 113 145 165
0.325401 0.062090 0.585000 130 162 182
0.326369 0.062090 0.585000 137 169 189
0.327898 0.062196 0.586000 145 177 197
0.328868 0.062196 0.586000 145 179 201
0.329839 0.062196 0.586000 146 180 202
0.331374 0.062302 0.587000 149 181 203
0.332346 0.062302 0.587000 149 181 203
0.333886 0.062408 0.588000 146 176 197
0.334859 0.062408 0.588000 146 176 197
0.335833 0.062408 0.588000 142 176 196
0.336807 0.062408 0.588000 145 179 199
0.337781 0.062408 0.588000 146 180 200
0.338178 0.062302 0.587000 143 177 197
0.339151 0.062302 0.587000 143 177 199
0.340123 0.062302 0.587000 145 179 201
0.340514 0.062196 0.586000 146 180 202
0.341484 0.062196 0.586000 147 181 203
0.342455 0.062196 0.586000 145 182 203
0.342839 0.062090 0.585000 141 178 199
0.343808 0.062090 0.585000 140 178 201
0.344777 0.062090 0.585000 143 181 204
0.345745 0.062090 0.585000 143 181 204
0.346122 0.061984 0.584000 142 180 203
0.347089 0.061984 0.584000 144 180 204
0.348056 0.061984 0.584000 144 180 204
0.349023 0.061984 0.584000 142 180 203
0.349990 0.061984 0.584000 142 180 203
0.350957 0.061984 0.584000 142 180 203
0.351924 0.061984 0.584000 144 182 205
0.353496 0.062090 0.585000 145 182 203
0.355676 0.062302 0.587000 144 181 202
0.359079 0.062727 0.591000 146 180 202
0.360058 0.062727 0.591000 147 181 203
0.362869 0.063045 0.594000 147 181 203
0.370591 0.064212 0.605000 147 181 203
0.371593 0.064212 0.605000 146 180 202
0.372595 0.064212 0.605000 148 182 204
0.374831 0.064425 0.607000 149 183 205
0.377694 0.064743 0.610000 148 182 204
0.379946 0.064955 0.612000 148 182 204
0.380960 0.064955 0.612000 150 184 206
0.382597 0.065062 0.613000 156 188 210
0.383612 0.065062 0.613000 157 189 211
0.308388 0.064569 0.599000 121 132 153
0.308864 0.064461 0.598000 118 129 150
0.309854 0.064461 0.598000 113 129 148
0.310845 0.064461 0.598000 112 128 147
0.311313 0.064353 0.597000 110 126 147
0.312302 0.064353 0.597000 104 120 141
0.313291 0.064353 0.597000 100 114 136
0.313753 0.064246 0.596000 99 113 135
0.314740 0.064246 0.596000 93 112 132
0.315197 0.064138 0.595000 90 109 129
0.315120 0.063922 0.593000 87 108 127
0.315569 0.063814 0.592000 81 102 121
0.316549 0.063814 0.592000 77 99 121
0.316457 0.063599 0.590000 76 98 120
0.316896 0.063491 0.589000 77 99 123
0.317871 0.063491 0.589000 75 97 121
0.317764 0.063275 0.587000 61 83 105
0.318193 0.063168 0.586000 76 98 120
0.319164 0.063168 0.586000 64 98 120
0.319588 0.063060 0.585000 63 97 119
0.320009 0.062952 0.584000 77 118 140
0.320976 0.062952 0.584000 102 143 165
0.321943 0.062952 0.584000 131 165 187
0.322910 0.062952 0.584000 135 169 191
0.323877 0.062952 0.584000 141 171 192
0.325401 0.063060 0.585000 142 172 193
0.326369 0.063060 0.585000 145 175 196
0.327338 0.063060 0.585000 149 179 200
0.328868 0.063168 0.586000 149 179 200
0.329839 0.063168 0.586000 149 179 200
0.331374 0.063275 0.587000 150 180 201
0.332346 0.063275 0.587000 151 181 202
0.333318 0.063275 0.587000 148 178 199
0.334290 0.063275 0.587000 146 176 197
0.335833 0.063383 0.588000 144 176 196
0.336807 0.063383 0.588000 147 179 199
0.337206 0.063275 0.587000 145 179 199
0.338178 0.063275 0.587000 145 179 199
0.338573 0.063168 0.586000 145 179 199
0.339543 0.063168 0.586000 146 180 200
0.340514 0.063168 0.586000 147 181 201
0.340901 0.063060 0.585000 147 181 201
0.341870 0.063060 0.585000 147 181 203
0.342839 0.063060 0.585000 145 179 201
0.343220 0.062952 0.584000 141 178 199
0.344187 0.062952 0.584000 144 181 202
0.345154 0.062952 0.584000 143 182 202
0.346122 0.062952 0.584000 142 181 201
0.347089 0.062952 0.584000 144 181 202
0.348056 0.062952 0.584000 144 181 202
0.349023 0.062952 0.584000 143 180 201
0.349990 0.062952 0.584000 143 180 201
0.350957 0.062952 0.584000 143 180 201
0.351924 0.062952 0.584000 144 181 202
0.353496 0.063060 0.585000 144 181 202
0.355676 0.063275 0.587000 143 180 201
0.359079 0.063707 0.591000 141 178 199
0.360058 0.063707 0.591000 145 182 203
0.362869 0.064030 0.594000 147 181 203
0.370591 0.065216 0.605000 147 181 203
0.371593 0.065216 0.605000 147 181 203
0.372595 0.065216 0.605000 148 182 204
0.374831 0.065431 0.607000 149 183 205
0.377694 0.065755 0.610000 148 182 204
0.379946 0.065970 0.612000 148 182 204
0.380960 0.065970 0.612000 152 186 208
0.381973 0.065970 0.612000 153 187 209
0.382987 0.065970 0.612000 155 189 211
0.384000 0.065970 0.612000 176 197 216
0.385014 0.065970 0.612000 237 255 255
0.387796 0.065755 0.610000 250 255 254
0.307359 0.065343 0.597000 116 132 151
0.308347 0.065343 0.597000 112 128 147
0.309336 0.065343 0.597000 110 129 147
0.309805 0.065234 0.596000 109 128 146
0.310270 0.065125 0.595000 109 128 146
0.311256 0.065125 0.595000 107 126 144
0.312241 0.065125 0.595000 101 122 141
0.312700 0.065015 0.594000 98 119 138
0.313684 0.065015 0.594000 93 116 135
0.314138 0.064906 0.593000 90 113 132
0.314057 0.064687 0.591000 90 113 132
0.315036 0.064687 0.591000 85 108 127
0.315480 0.064577 0.590000 84 106 128
0.315921 0.064468 0.589000 85 107 129
0.315820 0.064249 0.587000 83 110 134
0.316792 0.064249 0.587000 83 110 134
0.317223 0.064139 0.586000 70 101 126
0.317650 0.064030 0.585000 95 126 151
0.318619 0.064030 0.585000 102 140 163
0.319042 0.063921 0.584000 123 161 184
0.319461 0.063811 0.583000 129 170 192
0.320426 0.063811 0.583000 128 169 191
0.321392 0.063811 0.583000 138 172 194
0.322910 0.063921 0.584000 141 175 197
0.323877 0.063921 0.584000 143 175 195
0.324844 0.063921 0.584000 144 176 196
0.325812 0.063921 0.584000 148 178 199
0.327338 0.064030 0.585000 150 180 201
0.328307 0.064030 0.585000 149 179 200
0.329276 0.064030 0.585000 149 179 200
0.330809 0.064139 0.586000 150 180 201
0.331780 0.064139 0.586000 150 180 201
0.333318 0.064249 0.587000 148 178 199
0.334290 0.064249 0.587000 146 176 197
0.335262 0.064249 0.587000 145 177 197
0.336234 0.064249 0.587000 147 179 199
0.337206 0.064249 0.587000 146 180 200
0.337602 0.064139 0.586000 147 181 201
0.338573 0.064139 0.586000 147 181 201
0.339543 0.064139 0.586000 146 180 200
0.340514 0.064139 0.586000 147 181 201
0.340901 0.064030 0.585000 148 182 202
0.341870 0.064030 0.585000 148 180 202
0.342839 0.064030 0.585000 147 179 201
0.343220 0.063921 0.584000 145 179 201
0.344187 0.063921 0.584000 145 179 201
0.345154 0.063921 0.584000 143 180 201
0.346122 0.063921 0.584000 143 180 201
0.347089 0.063921 0.584000 144 181 202
0.348056 0.063921 0.584000 144 181 202
0.349023 0.063921 0.584000 144 181 202
0.358706 0.064796 0.592000 141 178 199
0.359686 0.064796 0.592000 141 177 201
0.360667 0.064796 0.592000 144 180 204
0.364091 0.065234 0.596000 146 180 202
0.371203 0.066328 0.606000 147 181 203
0.372207 0.066328 0.606000 147 181 203
0.373210 0.066328 0.606000 147 181 203
0.376067 0.066657 0.609000 148 182 204
0.378313 0.066876 0.611000 148 182 204
0.379946 0.066985 0.612000 151 183 205
0.380960 0.066985 0.612000 152 184 206
0.381973 0.066985 0.612000 154 186 208
0.382987 0.066985 0.612000 156 188 210
0.384000 0.066985 0.612000 156 178 204
0.385014 0.066985 0.612000 232 254 255
0.387796 0.066766 0.610000 250 255 254
0.307359 0.066333 0.597000 112 133 150
0.308347 0.066333 0.597000 109 130 147
0.309336 0.066333 0.597000 110 131 148
0.309805 0.066222 0.596000 109 130 147
0.310270 0.066111 0.595000 108 129 146
0.311256 0.066111 0.595000 107 128 145
0.312241 0.066111 0.595000 101 124 141
0.312700 0.066000 0.594000 99 122 139
0.313684 0.066000 0.594000 95 121 139
0.314138 0.065889 0.593000 94 120 138
0.314057 0.065667 0.591000 98 121 140
0.315036 0.065667 0.591000 96 119 138
0.315480 0.065556 0.590000 92 114 140
0.315921 0.065445 0.589000 94 116 142
0.315820 0.065222 0.587000 91 120 146
0.316792 0.065222 0.587000 108 137 163
0.317223 0.065111 0.586000 125 161 185
0.317650 0.065000 0.585000 133 169 193
0.318619 0.065000 0.585000 130 171 193
0.319042 0.064889 0.584000 130 171 193
0.319461 0.064778 0.583000 133 176 197
0.320426 0.064778 0.583000 136 179 200
0.321392 0.064778 0.583000 141 178 199
0.322910 0.064889 0.584000 143 180 201
0.323877 0.064889 0.584000 145 177 197
0.324844 0.064889 0.584000 147 179 199
0.325812 0.064889 0.584000 148 180 200
0.327338 0.065000 0.585000 148 180 200
0.328307 0.065000 0.585000 149 181 201
0.329276 0.065000 0.585000 149 181 201
0.330809 0.065111 0.586000 148 180 200
0.331780 0.065111 0.586000 149 181 201
0.333318 0.065222 0.587000 148 180 200
0.334290 0.065222 0.587000 145 177 197
0.335262 0.065222 0.587000 145 177 197
0.336234 0.065222 0.587000 145 177 197
0.337206 0.065222 0.587000 146 180 200
0.337602 0.065111 0.586000 147 181 201
0.338573 0.065111 0.586000 145 179 199
0.339543 0.065111 0.586000 146 180 200
0.340514 0.065111 0.586000 147 181 203
0.340901 0.065000 0.585000 147 181 203
0.341870 0.065000 0.585000 147 179 201
0.342839 0.065000 0.585000 147 179 201
0.343220 0.064889 0.584000 143 177 199
0.344187 0.064889 0.584000 146 180 202
0.345154 0.064889 0.584000 143 180 201
0.346122 0.064889 0.584000 143 180 201
0.347089 0.064889 0.584000 143 180 201
0.348056 0.064889 0.584000 144 181 202
0.349023 0.064889 0.584000 145 182 203
0.363332 0.066445 0.598000 139 176 197
0.364322 0.066445 0.598000 144 181 202
0.365313 0.066445 0.598000 144 181 202
0.371816 0.067445 0.607000 145 182 203
0.372821 0.067445 0.607000 146 180 202
0.375674 0.067778 0.610000 147 181 203
0.376684 0.067778 0.610000 147 181 203
0.378313 0.067889 0.611000 148 182 204
0.379946 0.068000 0.612000 148 182 204
0.380960 0.068000 0.612000 152 186 208
0.381973 0.068000 0.612000 154 186 208
0.382987 0.068000 0.612000 156 188 210
0.384000 0.068000 0.612000 164 185 214
0.385014 0.068000 0.612000 204 225 254
0.387796 0.067778 0.610000 250 255 254
0.306844 0.067211 0.596000 109 130 147
0.307831 0.067211 0.596000 108 129 146
0.308300 0.067098 0.595000 108 131 148
0.308765 0.066985 0.594000 107 130 147
0.309228 0.066872 0.593000 106 129 148
0.310210 0.066872 0.593000 105 128 147
0.310667 0.066760 0.592000 102 128 146
0.311121 0.066647 0.591000 99 125 143
0.312100 0.066647 0.591000 99 125 143
0.312549 0.066534 0.590000 102 128 146
0.312994 0.066421 0.589000 101 131 150
0.313970 0.066421 0.589000 103 133 152
0.314410 0.066309 0.588000 114 144 167
0.314848 0.066196 0.587000 138 168 191
0.314744 0.065970 0.585000 139 172 197
0.315713 0.065970 0.585000 136 169 194
0.316140 0.065857 0.584000 136 172 196
0.317107 0.065857 0.584000 138 174 198
0.318074 0.065857 0.584000 137 175 198
0.318495 0.065745 0.583000 138 176 199
0.319461 0.065745 0.583000 140 178 201
0.320426 0.065745 0.583000 142 180 203
0.321392 0.065745 0.583000 143 180 201
0.322357 0.065745 0.583000 144 181 202
0.323323 0.065745 0.583000 145 179 201
0.324844 0.065857 0.584000 145 179 201
0.325812 0.065857 0.584000 145 179 201
0.327338 0.065970 0.585000 146 180 202
0.328307 0.065970 0.585000 149 181 203
0.329276 0.065970 0.585000 148 180 202
0.330809 0.066083 0.586000 148 180 202
0.331780 0.066083 0.586000 149 181 203
0.333318 0.066196 0.587000 148 180 202
0.334290 0.066196 0.587000 145 177 199
0.335262 0.066196 0.587000 142 176 198
0.336234 0.066196 0.587000 142 176 198
0.337206 0.066196 0.587000 145 179 201
0.337602 0.066083 0.586000 147 181 203
0.338573 0.066083 0.586000 143 177 199
0.339543 0.066083 0.586000 142 176 198
0.339933 0.065970 0.585000 145 179 201
0.340901 0.065970 0.585000 147 181 203
0.341870 0.065970 0.585000 147 179 201
0.342253 0.065857 0.584000 145 177 199
0.343220 0.065857 0.584000 145 179 201
0.344187 0.065857 0.584000 147 181 203
0.345154 0.065857 0.584000 143 180 201
0.346122 0.065857 0.584000 144 181 202
0.347089 0.065857 0.584000 143 180 201
0.348056 0.065857 0.584000 145 182 203
0.349023 0.065857 0.584000 145 182 203
0.363332 0.067436 0.598000 139 176 197
0.364322 0.067436 0.598000 143 180 201
0.365313 0.067436 0.598000 144 181 202
0.371816 0.068451 0.607000 145 182 203
0.372821 0.068451 0.607000 146 180 202
0.375674 0.068789 0.610000 148 182 204
0.376684 0.068789 0.610000 148 182 204
0.378313 0.068902 0.611000 149 183 205
0.379946 0.069015 0.612000 148 182 204
0.380960 0.069015 0.612000 152 186 208
0.381973 0.069015 0.612000 154 186 208
0.382987 0.069015 0.612000 157 189 211
0.384000 0.069015 0.612000 163 184 215
0.384385 0.068902 0.611000 178 199 230
0.384766 0.068789 0.610000 245 255 255
0.385776 0.068789 0.610000 246 255 255
0.386786 0.068789 0.610000 250 255 254
0.387796 0.068789 0.610000 250 255 254
0.306329 0.068085 0.595000 106 127 144
0.307314 0.068085 0.595000 106 127 144
0.307263 0.067856 0.593000 104 127 144
0.307726 0.067741 0.592000 106 129 146
0.308185 0.067627 0.591000 105 128 147
0.309163 0.067627 0.591000 106 129 148
0.309617 0.067512 0.590000 104 129 150
0.310068 0.067398 0.589000 104 129 150
0.311043 0.067398 0.589000 107 139 157
0.311489 0.067284 0.588000 123 155 173
0.311931 0.067169 0.587000 123 162 182
0.312904 0.067169 0.587000 129 168 188
0.313341 0.067055 0.586000 136 173 194
0.313775 0.066940 0.585000 138 175 196
0.314206 0.066826 0.584000 143 177 199
0.315173 0.066826 0.584000 142 176 198
0.315599 0.066711 0.583000 143 177 199
0.316021 0.066597 0.582000 145 179 201
0.316985 0.066597 0.582000 141 178 199
0.317949 0.066597 0.582000 143 180 201
0.318913 0.066597 0.582000 143 180 201
0.319877 0.066597 0.582000 144 181 202
0.320840 0.066597 0.582000 145 179 201
0.321804 0.066597 0.582000 146 180 202
0.323323 0.066711 0.583000 145 179 201
0.324288 0.066711 0.583000 145 179 201
0.325254 0.066711 0.583000 146 180 202
0.326779 0.066826 0.584000 146 180 202
0.328307 0.066940 0.585000 148 180 202
0.329276 0.066940 0.585000 148 180 202
0.330809 0.067055 0.586000 148 180 202
0.331780 0.067055 0.586000 149 181 203
0.333318 0.067169 0.587000 147 179 201
0.334290 0.067169 0.587000 145 177 199
0.335262 0.067169 0.587000 142 176 198
0.336234 0.067169 0.587000 142 176 198
0.336632 0.067055 0.586000 145 179 201
0.337602 0.067055 0.586000 145 179 201
0.338573 0.067055 0.586000 143 177 199
0.339543 0.067055 0.586000 143 177 199
0.339933 0.066940 0.585000 143 177 199
0.340901 0.066940 0.585000 145 179 201
0.341870 0.066940 0.585000 145 178 203
0.342253 0.066826 0.584000 143 176 201
0.343220 0.066826 0.584000 145 178 203
0.344187 0.066826 0.584000 147 180 205
0.345154 0.066826 0.584000 144 180 204
0.346122 0.066826 0.584000 144 180 204
0.346494 0.066711 0.583000 144 180 204
0.347460 0.066711 0.583000 146 182 206
0.348425 0.066711 0.583000 147 181 203
0.373041 0.069687 0.609000 145 182 203
0.374049 0.069687 0.609000 147 181 203
0.375674 0.069801 0.610000 148 182 204
0.376684 0.069801 0.610000 149 183 205
0.378313 0.069915 0.611000 148 182 204
0.379946 0.070030 0.612000 151 183 205
0.380960 0.070030 0.612000 152 184 206
0.381973 0.070030 0.612000 155 185 208
0.382987 0.070030 0.612000 156 186 209
0.384000 0.070030 0.612000 167 188 217
0.384385 0.069915 0.611000 171 192 221
0.384766 0.069801 0.610000 242 253 255
0.385776 0.069801 0.610000 246 255 255
0.386786 0.069801 0.610000 250 255 254
0.387796 0.069801 0.610000 250 255 254
0.305299 0.068839 0.593000 101 122 139
0.306281 0.068839 0.593000 101 122 139
0.306745 0.068723 0.592000 99 122 139
0.306686 0.068491 0.590000 100 123 140
0.307142 0.068375 0.589000 97 123 141
0.308117 0.068375 0.589000 98 124 142
0.308568 0.068259 0.588000 105 130 151
0.309015 0.068143 0.587000 133 158 179
0.309987 0.068143 0.587000 126 165 183
0.310430 0.068026 0.586000 129 168 186
0.310869 0.067910 0.585000 127 171 189
0.311837 0.067910 0.585000 133 177 195
0.312272 0.067794 0.584000 139 176 197
0.312702 0.067678 0.583000 143 180 201
0.313668 0.067678 0.583000 146 180 202
0.314094 0.067562 0.582000 147 181 203
0.315057 0.067562 0.582000 148 180 202
0.315478 0.067446 0.581000 148 180 202
0.316440 0.067446 0.581000 146 180 202
0.317403 0.067446 0.581000 145 179 201
0.318365 0.067446 0.581000 144 181 202
0.319327 0.067446 0.581000 143 180 201
0.320289 0.067446 0.581000 143 177 199
0.321251 0.067446 0.581000 147 181 203
0.322768 0.067562 0.582000 145 179 201
0.324288 0.067678 0.583000 143 177 199
0.325254 0.067678 0.583000 145 179 201
0.326779 0.067794 0.584000 146 180 202
0.327746 0.067794 0.584000 145 179 201
0.328713 0.067794 0.584000 146 180 202
0.330245 0.067910 0.585000 143 177 199
0.331780 0.068026 0.586000 146 180 202
0.332750 0.068026 0.586000 147 179 201
0.333721 0.068026 0.586000 145 177 199
0.334691 0.068026 0.586000 145 177 199
0.335661 0.068026 0.586000 144 176 198
0.336632 0.068026 0.586000 143 177 199
0.337602 0.068026 0.586000 145 179 201
0.338573 0.068026 0.586000 145 179 201
0.339543 0.068026 0.586000 143 177 199
0.339933 0.067910 0.585000 145 179 201
0.340901 0.067910 0.585000 145 179 201
0.341870 0.067910 0.585000 143 176 201
0.342253 0.067794 0.584000 143 176 201
0.343220 0.067794 0.584000 143 179 203
0.344187 0.067794 0.584000 144 180 204
0.345154 0.067794 0.584000 144 180 204
