ply
format ascii 1.0
element vertex 1292
property float x
property float y
property float z
property uchar red
property uchar green
property uchar blue
end_header
-0.153267 0.117898 0.578000 12 18 18
-0.152046 0.117694 0.577000 10 18 17
-0.151091 0.117694 0.577000 10 18 17
-0.149875 0.117490 0.576000 10 18 17
-0.148921 0.117490 0.576000 8 16 15
-0.147967 0.117490 0.576000 8 16 15
-0.146758 0.117286 0.575000 8 16 15
-0.145806 0.117286 0.575000 10 18 17
-0.144854 0.117286 0.575000 11 19 18
-0.143901 0.117286 0.575000 10 18 17
-0.142949 0.117286 0.575000 10 18 17
-0.141997 0.117286 0.575000 10 18 17
-0.140799 0.117082 0.574000 10 18 17
-0.139849 0.117082 0.574000 11 17 17
-0.138898 0.117082 0.574000 11 17 17
-0.137948 0.117082 0.574000 11 17 17
-0.136997 0.117082 0.574000 9 15 15
-0.136046 0.117082 0.574000 9 15 15
-0.134861 0.116878 0.573000 11 17 17
-0.133912 0.116878 0.573000 9 15 15
-0.132499 0.116470 0.571000 9 15 15
-0.131553 0.116470 0.571000 8 14 14
-0.130379 0.116266 0.570000 9 15 15
-0.128753 0.115655 0.567000 9 15 15
-0.127814 0.115655 0.567000 9 15 15
-0.126428 0.115247 0.565000 8 16 15
-0.124826 0.114635 0.562000 7 15 14
-0.123895 0.114635 0.562000 10 18 17
-0.122527 0.114227 0.560000 10 18 17
-0.121382 0.114023 0.559000 12 20 21
-0.120457 0.114023 0.559000 17 25 26
-0.119531 0.114023 0.559000 7 22 35
-0.118605 0.114023 0.559000 76 91 104
-0.117890 0.114227 0.560000 67 100 115
-0.117380 0.114635 0.562000 69 102 117
-0.116450 0.114635 0.562000 62 99 118
-0.116341 0.115451 0.566000 58 95 114
-0.115404 0.115451 0.566000 10 37 57
-0.115275 0.116266 0.570000 18 45 65
-0.114331 0.116266 0.570000 18 42 56
-0.113984 0.116878 0.573000 16 40 54
-0.113430 0.117286 0.575000 17 39 51
-0.112869 0.117694 0.577000 17 39 51
-0.111913 0.117694 0.577000 17 38 46
-0.111150 0.117898 0.578000 15 36 44
-0.110193 0.117898 0.578000 15 27 31
-0.184719 0.115772 0.563000 22 28 26
-0.182808 0.115155 0.560000 26 36 41
-0.181880 0.115155 0.560000 30 40 45
-0.180307 0.114744 0.558000 56 83 96
-0.178740 0.114333 0.556000 80 107 120
-0.177819 0.114333 0.556000 70 108 122
-0.176262 0.113922 0.554000 72 110 124
-0.175028 0.113716 0.553000 73 110 127
-0.174112 0.113716 0.553000 72 109 126
-0.173196 0.113716 0.553000 72 111 127
-0.172280 0.113716 0.553000 72 111 127
-0.171365 0.113716 0.553000 71 110 126
-0.170757 0.113922 0.554000 72 111 127
-0.169839 0.113922 0.554000 72 111 127
-0.169227 0.114127 0.555000 71 110 126
-0.169218 0.114744 0.558000 71 110 126
-0.169198 0.115361 0.561000 69 108 124
-0.168269 0.115361 0.561000 68 105 124
-0.168235 0.115978 0.564000 73 110 129
-0.168191 0.116595 0.567000 12 37 58
-0.168137 0.117212 0.570000 18 43 64
-0.167193 0.117212 0.570000 16 36 51
-0.166832 0.117623 0.572000 12 32 47
-0.166755 0.118240 0.575000 9 29 40
-0.166091 0.118446 0.576000 5 25 36
-0.165137 0.118446 0.576000 9 22 31
-0.164468 0.118651 0.577000 7 20 29
-0.163796 0.118857 0.578000 10 20 23
-0.163121 0.119062 0.579000 9 19 22
-0.161882 0.118857 0.578000 11 19 20
-0.160925 0.118857 0.578000 11 19 20
-0.159967 0.118857 0.578000 11 19 18
-0.159010 0.118857 0.578000 10 18 17
-0.158053 0.118857 0.578000 13 19 19
-0.157096 0.118857 0.578000 13 19 19
-0.156139 0.118857 0.578000 13 19 19
-0.155181 0.118857 0.578000 12 18 18
-0.154224 0.118857 0.578000 13 19 19
-0.153267 0.118857 0.578000 12 18 18
-0.152046 0.118651 0.577000 10 18 17
-0.151091 0.118651 0.577000 10 18 17
-0.149875 0.118446 0.576000 11 19 18
-0.148921 0.118446 0.576000 10 18 17
-0.147967 0.118446 0.576000 10 18 17
-0.146758 0.118240 0.575000 10 18 17
-0.145806 0.118240 0.575000 10 18 17
-0.144854 0.118240 0.575000 10 18 17
-0.143901 0.118240 0.575000 10 18 17
-0.142949 0.118240 0.575000 10 18 17
-0.141997 0.118240 0.575000 11 17 17
-0.140799 0.118034 0.574000 11 17 17
-0.139849 0.118034 0.574000 9 15 15
-0.138898 0.118034 0.574000 11 17 17
-0.137948 0.118034 0.574000 11 17 17
-0.136997 0.118034 0.574000 9 15 15
-0.136046 0.118034 0.574000 9 15 15
-0.134861 0.117829 0.573000 11 17 17
-0.133912 0.117829 0.573000 9 15 15
-0.132499 0.117417 0.571000 9 15 15
-0.131553 0.117417 0.571000 8 14 14
-0.130379 0.117212 0.570000 8 14 14
-0.128753 0.116595 0.567000 8 14 14
-0.127814 0.116595 0.567000 9 15 15
-0.126428 0.116184 0.565000 8 16 15
-0.124826 0.115567 0.562000 7 15 14
-0.123895 0.115567 0.562000 8 16 15
-0.122527 0.115155 0.560000 10 18 17
-0.121382 0.114950 0.559000 11 19 18
-0.120457 0.114950 0.559000 14 22 21
-0.119531 0.114950 0.559000 9 18 28
-0.118605 0.114950 0.559000 58 67 77
-0.117890 0.115155 0.560000 73 104 118
-0.117171 0.115361 0.561000 68 99 113
-0.116242 0.115361 0.561000 61 98 117
-0.115724 0.115772 0.563000 61 98 117
-0.115404 0.116389 0.566000 21 51 70
-0.114871 0.116800 0.568000 15 45 64
-0.113930 0.116800 0.568000 19 43 57
-0.113586 0.117417 0.571000 18 42 56
-0.113233 0.118034 0.574000 18 40 54
-0.112673 0.118446 0.576000 18 40 54
-0.111719 0.118446 0.576000 17 39 49
-0.110958 0.118651 0.577000 15 37 47
-0.110193 0.118857 0.578000 16 28 34
-0.109236 0.118857 0.578000 12 24 30
-0.184719 0.116706 0.563000 21 27 25
-0.182808 0.116084 0.560000 25 32 36
-0.181880 0.116084 0.560000 28 35 39
-0.179983 0.115462 0.557000 32 56 68
-0.178418 0.115048 0.555000 85 109 121
-0.177499 0.115048 0.555000 70 107 124
-0.175944 0.114633 0.553000 72 109 126
-0.174711 0.114426 0.552000 73 110 127
-0.173797 0.114426 0.552000 72 109 126
-0.172570 0.114218 0.551000 71 110 128
-0.171657 0.114218 0.551000 71 110 128
-0.170745 0.114218 0.551000 71 110 128
-0.170141 0.114426 0.552000 71 110 128
-0.169226 0.114426 0.552000 69 108 126
-0.168617 0.114633 0.553000 71 110 128
-0.168611 0.115255 0.556000 71 110 128
-0.168897 0.116084 0.560000 68 107 125
-0.167969 0.116084 0.560000 75 112 129
-0.168235 0.116913 0.564000 32 69 86
-0.168191 0.117535 0.567000 17 38 57
-0.168137 0.118157 0.570000 18 39 58
-0.167193 0.118157 0.570000 15 35 50
-0.166832 0.118572 0.572000 12 32 47
-0.166755 0.119193 0.575000 9 30 38
-0.166091 0.119401 0.576000 5 26 34
-0.165137 0.119401 0.576000 8 22 28
-0.164468 0.119608 0.577000 7 21 27
-0.163796 0.119815 0.578000 9 19 22
-0.163121 0.120023 0.579000 9 19 22
-0.162162 0.120023 0.579000 11 19 20
-0.161203 0.120023 0.579000 10 18 19
-0.160244 0.120023 0.579000 11 19 18
-0.159285 0.120023 0.579000 10 18 17
-0.158327 0.120023 0.579000 11 19 18
-0.157368 0.120023 0.579000 11 19 18
-0.156409 0.120023 0.579000 12 20 19
-0.155181 0.119815 0.578000 11 19 18
-0.154224 0.119815 0.578000 12 18 18
-0.153267 0.119815 0.578000 12 18 18
-0.152046 0.119608 0.577000 10 18 17
-0.151091 0.119608 0.577000 11 19 18
-0.150135 0.119608 0.577000 11 19 18
-0.149180 0.119608 0.577000 10 18 17
-0.147967 0.119401 0.576000 10 18 17
-0.147013 0.119401 0.576000 10 18 17
-0.146059 0.119401 0.576000 8 16 15
-0.145106 0.119401 0.576000 10 18 17
-0.144152 0.119401 0.576000 8 16 15
-0.143198 0.119401 0.576000 8 16 15
-0.142244 0.119401 0.576000 8 16 15
-0.141290 0.119401 0.576000 10 18 17
-0.140336 0.119401 0.576000 8 16 15
-0.139382 0.119401 0.576000 8 16 15
-0.138428 0.119401 0.576000 9 15 15
-0.137236 0.119193 0.575000 9 15 15
-0.136283 0.119193 0.575000 9 15 15
-0.135331 0.119193 0.575000 9 15 15
-0.134379 0.119193 0.575000 9 15 15
-0.133195 0.118986 0.574000 9 15 15
-0.132244 0.118986 0.574000 8 14 14
-0.131065 0.118779 0.573000 8 14 14
-0.129435 0.118157 0.570000 8 14 14
-0.128491 0.118157 0.570000 9 15 15
-0.126875 0.117535 0.567000 8 16 15
-0.125492 0.117120 0.565000 7 15 14
-0.124557 0.117120 0.565000 7 15 14
-0.122965 0.116499 0.562000 8 16 15
-0.121817 0.116291 0.561000 10 18 17
-0.120888 0.116291 0.561000 12 20 19
-0.119745 0.116084 0.560000 12 19 27
-0.118817 0.116084 0.560000 31 38 46
-0.117890 0.116084 0.560000 81 107 123
-0.117171 0.116291 0.561000 71 97 113
-0.116242 0.116291 0.561000 61 98 117
-0.115519 0.116499 0.562000 59 96 115
-0.114996 0.116913 0.564000 50 84 102
-0.114669 0.117535 0.567000 10 44 62
-0.113730 0.117535 0.567000 20 44 58
-0.113387 0.118157 0.570000 18 42 56
-0.113035 0.118779 0.573000 18 40 54
-0.112478 0.119193 0.575000 18 40 54
-0.111525 0.119193 0.575000 17 39 49
-0.110765 0.119401 0.576000 16 38 48
-0.110002 0.119608 0.577000 15 31 39
-0.109236 0.119815 0.578000 8 24 32
-0.184719 0.117640 0.563000 21 27 25
-0.182808 0.117013 0.560000 24 32 33
-0.181880 0.117013 0.560000 28 36 37
-0.179983 0.116386 0.557000 30 47 59
-0.178418 0.115968 0.555000 73 90 102
-0.177499 0.115968 0.555000 75 109 127
-0.175944 0.115550 0.553000 74 108 126
-0.174711 0.115341 0.552000 72 109 128
-0.173797 0.115341 0.552000 72 109 128
-0.172570 0.115132 0.551000 72 109 128
-0.171657 0.115132 0.551000 73 110 129
-0.170745 0.115132 0.551000 71 110 128
-0.169832 0.115132 0.551000 71 110 128
-0.168920 0.115132 0.551000 67 106 124
-0.168617 0.115550 0.553000 69 108 126
-0.168611 0.116177 0.556000 71 110 128
-0.168897 0.117013 0.560000 68 107 125
-0.167969 0.117013 0.560000 75 110 125
-0.167937 0.117640 0.563000 8 43 58
-0.169081 0.119102 0.570000 21 40 58
-0.168137 0.119102 0.570000 17 36 54
-0.167193 0.119102 0.570000 15 35 48
-0.167124 0.119729 0.573000 11 31 44
-0.167045 0.120356 0.576000 8 29 37
-0.166380 0.120565 0.577000 4 25 33
-0.165424 0.120565 0.577000 10 22 28
-0.164753 0.120774 0.578000 8 20 26
-0.164080 0.120983 0.579000 9 19 22
-0.163121 0.120983 0.579000 9 19 22
-0.162162 0.120983 0.579000 8 19 19
-0.161203 0.120983 0.579000 8 19 19
-0.160244 0.120983 0.579000 10 18 17
-0.159285 0.120983 0.579000 10 18 17
-0.158327 0.120983 0.579000 11 19 18
-0.157368 0.120983 0.579000 11 19 18
-0.156409 0.120983 0.579000 11 19 16
-0.155450 0.120983 0.579000 11 19 16
-0.154224 0.120774 0.578000 11 19 16
-0.153267 0.120774 0.578000 11 19 16
-0.152310 0.120774 0.578000 10 18 15
-0.151091 0.120565 0.577000 10 18 15
-0.150135 0.120565 0.577000 11 19 18
-0.149180 0.120565 0.577000 10 18 17
-0.148224 0.120565 0.577000 10 18 17
-0.147269 0.120565 0.577000 10 18 17
-0.146313 0.120565 0.577000 10 18 17
-0.145106 0.120356 0.576000 10 18 17
-0.144152 0.120356 0.576000 8 16 15
-0.143198 0.120356 0.576000 8 16 15
-0.142244 0.120356 0.576000 8 16 15
-0.141290 0.120356 0.576000 10 18 17
-0.140580 0.120565 0.577000 8 16 15
-0.139624 0.120565 0.577000 8 16 15
-0.138669 0.120565 0.577000 8 16 15
-0.137713 0.120565 0.577000 8 16 15
-0.136758 0.120565 0.577000 8 14 14
-0.135802 0.120565 0.577000 9 15 15
-0.134613 0.120356 0.576000 9 15 15
-0.133659 0.120356 0.576000 8 14 14
-0.132705 0.120356 0.576000 8 14 14
-0.131294 0.119938 0.574000 8 14 14
-0.130116 0.119729 0.573000 8 14 14
-0.129167 0.119729 0.573000 9 15 15
-0.127547 0.119102 0.570000 8 16 15
-0.125936 0.118475 0.567000 6 14 13
-0.124997 0.118475 0.567000 7 15 14
-0.123402 0.117848 0.564000 8 16 15
-0.122034 0.117431 0.562000 10 18 17
-0.120888 0.117222 0.561000 11 19 18
-0.119959 0.117222 0.561000 13 20 26
-0.119029 0.117222 0.561000 12 19 25
-0.117890 0.117013 0.560000 66 88 102
-0.116963 0.117013 0.560000 78 100 114
-0.116035 0.117013 0.560000 62 99 116
-0.115313 0.117222 0.561000 60 97 114
-0.114996 0.117848 0.564000 60 97 114
-0.114466 0.118266 0.566000 13 50 67
-0.113529 0.118266 0.566000 22 46 60
-0.112990 0.118684 0.568000 19 43 57
-0.112641 0.119311 0.571000 21 41 56
-0.112282 0.119938 0.574000 19 39 54
-0.111331 0.119938 0.574000 18 38 51
-0.110573 0.120147 0.575000 18 38 51
-0.110002 0.120565 0.577000 18 34 44
-0.109236 0.120774 0.578000 12 28 38
-0.108278 0.120774 0.578000 13 24 24
-0.185047 0.118784 0.564000 21 27 25
-0.182808 0.117941 0.560000 22 30 31
-0.181880 0.117941 0.560000 27 35 36
-0.180307 0.117520 0.558000 26 38 52
-0.178418 0.116888 0.555000 48 60 74
-0.177499 0.116888 0.555000 78 110 128
-0.176262 0.116678 0.554000 76 108 126
-0.174711 0.116256 0.552000 70 107 126
-0.173797 0.116256 0.552000 72 109 128
-0.172570 0.116046 0.551000 72 109 128
-0.171657 0.116046 0.551000 73 110 129
-0.170745 0.116046 0.551000 72 109 128
-0.169832 0.116046 0.551000 72 109 128
-0.168920 0.116046 0.551000 66 108 125
-0.168617 0.116467 0.553000 69 111 128
-0.168611 0.117099 0.556000 67 109 126
-0.168897 0.117941 0.560000 66 108 125
-0.167969 0.117941 0.560000 45 78 93
-0.167937 0.118573 0.563000 13 46 61
-0.169081 0.120047 0.570000 18 37 55
-0.168137 0.120047 0.570000 16 35 53
-0.167193 0.120047 0.570000 14 34 47
-0.167416 0.120890 0.574000 11 31 44
-0.167335 0.121522 0.577000 8 29 37
-0.166668 0.121732 0.578000 4 25 33
-0.165711 0.121732 0.578000 9 21 27
-0.165039 0.121943 0.579000 8 20 26
-0.164363 0.122154 0.580000 10 17 21
-0.163403 0.122154 0.580000 10 17 21
-0.162442 0.122154 0.580000 8 19 19
-0.161481 0.122154 0.580000 8 19 19
-0.160521 0.122154 0.580000 10 18 17
-0.159560 0.122154 0.580000 10 18 17
-0.158600 0.122154 0.580000 11 19 18
-0.157368 0.121943 0.579000 10 18 17
-0.156409 0.121943 0.579000 11 19 16
-0.155450 0.121943 0.579000 10 18 15
-0.154491 0.121943 0.579000 11 19 16
-0.153532 0.121943 0.579000 11 19 16
-0.152310 0.121732 0.578000 10 18 15
-0.151353 0.121732 0.578000 10 18 15
-0.150135 0.121522 0.577000 10 18 15
-0.149180 0.121522 0.577000 10 18 15
-0.148224 0.121522 0.577000 10 18 17
-0.147269 0.121522 0.577000 10 18 17
-0.146313 0.121522 0.577000 10 18 17
-0.145357 0.121522 0.577000 10 18 17
-0.144402 0.121522 0.577000 8 16 15
-0.143446 0.121522 0.577000 10 18 17
-0.142491 0.121522 0.577000 8 16 15
-0.141535 0.121522 0.577000 8 16 15
-0.140580 0.121522 0.577000 8 16 15
-0.139624 0.121522 0.577000 8 16 15
-0.138669 0.121522 0.577000 8 16 15
-0.137713 0.121522 0.577000 8 16 15
-0.136758 0.121522 0.577000 7 15 14
-0.136037 0.121732 0.578000 8 16 15
-0.134846 0.121522 0.577000 9 15 15
-0.133891 0.121522 0.577000 8 14 14
-0.132935 0.121522 0.577000 8 14 14
-0.131751 0.121311 0.576000 8 14 14
-0.130343 0.120890 0.574000 8 14 14
-0.129392 0.120890 0.574000 8 14 14
-0.127994 0.120469 0.572000 7 15 14
-0.126381 0.119837 0.569000 6 14 13
-0.125438 0.119837 0.569000 7 15 14
-0.123840 0.119205 0.566000 8 16 15
-0.122251 0.118573 0.563000 8 16 15
-0.120888 0.118152 0.561000 10 18 17
-0.119959 0.118152 0.561000 12 19 23
-0.119029 0.118152 0.561000 12 19 23
-0.117890 0.117941 0.560000 38 55 71
-0.116963 0.117941 0.560000 85 102 118
-0.116035 0.117941 0.560000 62 99 116
-0.115313 0.118152 0.561000 62 99 116
-0.115404 0.119205 0.566000 61 98 115
-0.114466 0.119205 0.566000 34 71 88
-0.113529 0.119205 0.566000 18 44 60
-0.112990 0.119626 0.568000 18 44 60
-0.112641 0.120258 0.571000 22 42 57
-0.112282 0.120890 0.574000 21 41 56
-0.111331 0.120890 0.574000 18 38 51
-0.110573 0.121100 0.575000 18 38 51
-0.110002 0.121522 0.577000 18 36 45
-0.109236 0.121732 0.578000 13 31 40
-0.108278 0.121732 0.578000 12 25 24
-0.185047 0.119719 0.564000 20 26 24
-0.182808 0.118870 0.560000 19 30 28
-0.181880 0.118870 0.560000 22 33 31
-0.180307 0.118445 0.558000 26 36 50
-0.178418 0.117809 0.555000 37 47 61
-0.177499 0.117809 0.555000 70 101 117
-0.176262 0.117596 0.554000 77 108 124
-0.174711 0.117172 0.552000 70 107 124
-0.173797 0.117172 0.552000 72 109 126
-0.172570 0.116960 0.551000 72 109 128
-0.171657 0.116960 0.551000 73 110 129
-0.170745 0.116960 0.551000 72 109 128
-0.169832 0.116960 0.551000 72 109 128
-0.168920 0.116960 0.551000 67 109 126
-0.168312 0.117172 0.552000 69 111 128
-0.168611 0.118021 0.556000 65 109 125
-0.168897 0.118870 0.560000 63 107 123
-0.167969 0.118870 0.560000 30 61 77
-0.167937 0.119507 0.563000 14 45 61
-0.168191 0.120356 0.567000 19 35 54
-0.168137 0.120993 0.570000 17 33 52
-0.167193 0.120993 0.570000 14 34 47
-0.167416 0.121842 0.574000 11 31 44
-0.167335 0.122479 0.577000 8 29 37
-0.166668 0.122691 0.578000 3 24 32
-0.165711 0.122691 0.578000 9 21 25
-0.165039 0.122903 0.579000 8 20 24
-0.164363 0.123115 0.580000 10 18 19
-0.163403 0.123115 0.580000 11 19 20
-0.162442 0.123115 0.580000 10 18 19
-0.161481 0.123115 0.580000 10 18 19
-0.160521 0.123115 0.580000 10 18 17
-0.159560 0.123115 0.580000 8 16 15
-0.158600 0.123115 0.580000 11 19 18
-0.157368 0.122903 0.579000 10 18 17
-0.156409 0.122903 0.579000 11 19 18
-0.155450 0.122903 0.579000 10 18 17
-0.154491 0.122903 0.579000 10 18 15
-0.153532 0.122903 0.579000 10 18 15
-0.152310 0.122691 0.578000 10 18 15
-0.151353 0.122691 0.578000 10 18 15
-0.150135 0.122479 0.577000 10 18 17
-0.149180 0.122479 0.577000 10 18 17
-0.148224 0.122479 0.577000 8 16 15
-0.147269 0.122479 0.577000 8 16 15
-0.146313 0.122479 0.577000 10 18 17
-0.145357 0.122479 0.577000 10 18 17
-0.144402 0.122479 0.577000 7 15 14
-0.143446 0.122479 0.577000 8 16 15
-0.142491 0.122479 0.577000 8 16 15
-0.141535 0.122479 0.577000 8 16 15
-0.140580 0.122479 0.577000 9 15 15
-0.139624 0.122479 0.577000 9 15 15
-0.138669 0.122479 0.577000 8 16 15
-0.137713 0.122479 0.577000 7 15 14
-0.136758 0.122479 0.577000 7 15 14
-0.136037 0.122691 0.578000 7 15 14
-0.134846 0.122479 0.577000 8 14 14
-0.133891 0.122479 0.577000 8 14 14
-0.132935 0.122479 0.577000 7 15 14
-0.131751 0.122266 0.576000 7 15 14
-0.130343 0.121842 0.574000 8 14 14
-0.129392 0.121842 0.574000 8 14 14
-0.127994 0.121417 0.572000 8 14 14
-0.126381 0.120780 0.569000 7 13 13
-0.125438 0.120780 0.569000 7 15 14
-0.123840 0.120144 0.566000 7 15 14
-0.122251 0.119507 0.563000 8 16 15
-0.120888 0.119082 0.561000 10 18 17
-0.119959 0.119082 0.561000 11 19 20
-0.118817 0.118870 0.560000 12 20 21
-0.117890 0.118870 0.560000 13 30 44
-0.116963 0.118870 0.560000 90 107 121
-0.116035 0.118870 0.560000 62 99 116
-0.115108 0.118870 0.560000 62 99 116
-0.114588 0.119295 0.562000 61 100 116
-0.114062 0.119719 0.564000 57 96 112
-0.113128 0.119719 0.564000 16 42 58
-0.112592 0.120144 0.566000 18 44 60
-0.112443 0.120993 0.570000 22 42 57
-0.112086 0.121629 0.573000 21 41 56
-0.111137 0.121629 0.573000 19 39 52
-0.110381 0.121842 0.574000 19 39 52
-0.109811 0.122266 0.576000 19 36 48
-0.109236 0.122691 0.578000 14 31 43
-0.108278 0.122691 0.578000 16 28 30
-0.107507 0.122903 0.579000 14 26 28
-0.185704 0.121082 0.566000 21 27 25
-0.183461 0.120226 0.562000 20 28 27
-0.182530 0.120226 0.562000 21 29 28
-0.180953 0.119799 0.560000 24 35 44
-0.179061 0.119157 0.557000 29 40 49
-0.178139 0.119157 0.557000 53 79 97
-0.176580 0.118729 0.555000 84 110 128
-0.174711 0.118087 0.552000 71 110 126
-0.173797 0.118087 0.552000 71 110 126
-0.172570 0.117873 0.551000 69 108 124
-0.171657 0.117873 0.551000 72 111 127
-0.170745 0.117873 0.551000 71 110 126
-0.169832 0.117873 0.551000 69 108 124
-0.168920 0.117873 0.551000 65 109 125
-0.168312 0.118087 0.552000 66 110 126
-0.168611 0.118943 0.556000 64 108 124
-0.168897 0.119799 0.560000 63 107 123
-0.167969 0.119799 0.560000 22 53 67
-0.167937 0.120440 0.563000 14 45 59
-0.167894 0.121082 0.566000 16 35 53
-0.168137 0.121938 0.570000 15 34 52
-0.167193 0.121938 0.570000 14 31 45
-0.167416 0.122794 0.574000 13 30 44
-0.167335 0.123435 0.577000 9 27 34
-0.166956 0.123863 0.579000 5 23 30
-0.165997 0.123863 0.579000 10 20 25
-0.165324 0.124077 0.580000 9 19 24
-0.164363 0.124077 0.580000 10 18 19
-0.163403 0.124077 0.580000 10 18 19
-0.162442 0.124077 0.580000 10 18 19
-0.161481 0.124077 0.580000 10 18 19
-0.160521 0.124077 0.580000 10 18 17
-0.159560 0.124077 0.580000 8 16 15
-0.158600 0.124077 0.580000 11 19 18
-0.157639 0.124077 0.580000 10 18 17
-0.156679 0.124077 0.580000 11 19 18
-0.155450 0.123863 0.579000 10 18 17
-0.154491 0.123863 0.579000 10 18 17
-0.153532 0.123863 0.579000 10 18 17
-0.152310 0.123649 0.578000 10 18 17
-0.151353 0.123649 0.578000 10 18 17
-0.150135 0.123435 0.577000 10 18 17
-0.149180 0.123435 0.577000 8 16 15
-0.148224 0.123435 0.577000 8 16 15
-0.147269 0.123435 0.577000 8 16 15
-0.146313 0.123435 0.577000 10 18 17
-0.145357 0.123435 0.577000 10 18 17
-0.144402 0.123435 0.577000 8 14 14
-0.143446 0.123435 0.577000 9 15 15
-0.142491 0.123435 0.577000 9 15 15
-0.141535 0.123435 0.577000 9 15 15
-0.140823 0.123649 0.578000 8 14 14
-0.139866 0.123649 0.578000 9 15 15
-0.138909 0.123649 0.578000 7 15 14
-0.137952 0.123649 0.578000 7 15 14
-0.137232 0.123863 0.579000 7 15 14
-0.136273 0.123863 0.579000 7 15 14
-0.135080 0.123649 0.578000 8 16 15
-0.134123 0.123649 0.578000 7 15 14
-0.133166 0.123649 0.578000 7 15 14
-0.131980 0.123435 0.577000 7 15 14
-0.130797 0.123221 0.576000 8 14 14
-0.129843 0.123221 0.576000 8 14 14
-0.128442 0.122794 0.574000 8 14 14
-0.126825 0.122152 0.571000 7 13 13
-0.125218 0.121510 0.568000 8 14 14
-0.124058 0.121296 0.567000 8 14 14
-0.122468 0.120654 0.564000 9 15 15
-0.121103 0.120226 0.562000 9 15 15
-0.120172 0.120226 0.562000 11 17 19
-0.118817 0.119799 0.560000 14 20 22
-0.117890 0.119799 0.560000 6 21 34
-0.116963 0.119799 0.560000 78 93 106
-0.116035 0.119799 0.560000 63 100 117
-0.115108 0.119799 0.560000 62 99 116
-0.114384 0.120013 0.561000 64 103 121
-0.113455 0.120013 0.561000 64 103 121
-0.112927 0.120440 0.563000 32 63 79
-0.112393 0.120868 0.565000 16 47 63
-0.112049 0.121510 0.568000 23 43 58
-0.111108 0.121510 0.568000 22 42 57
-0.110749 0.122152 0.571000 21 38 52
-0.110381 0.122794 0.574000 21 38 52
-0.109811 0.123221 0.576000 19 36 48
-0.109047 0.123435 0.577000 17 34 46
-0.108091 0.123435 0.577000 16 30 36
-0.107507 0.123863 0.579000 12 26 32
-0.106548 0.123863 0.579000 16 22 24
-0.186032 0.122236 0.567000 21 27 25
-0.184113 0.121590 0.564000 20 28 25
-0.183179 0.121590 0.564000 20 28 25
-0.181276 0.120943 0.561000 22 32 39
-0.179383 0.120296 0.558000 29 39 46
-0.178458 0.120296 0.558000 28 52 66
-0.176580 0.119649 0.555000 85 109 123
-0.175028 0.119218 0.553000 69 108 124
-0.174112 0.119218 0.553000 71 110 126
-0.172570 0.118787 0.551000 69 108 124
-0.171657 0.118787 0.551000 71 110 126
-0.170745 0.118787 0.551000 69 111 126
-0.169832 0.118787 0.551000 67 109 124
-0.168920 0.118787 0.551000 65 109 125
-0.168312 0.119003 0.552000 66 110 126
-0.168611 0.119865 0.556000 63 107 121
-0.168897 0.120727 0.560000 50 94 108
-0.167969 0.120727 0.560000 18 44 60
-0.167937 0.121374 0.563000 16 42 58
-0.167894 0.122021 0.566000 16 35 53
-0.168137 0.122883 0.570000 14 33 51
-0.167193 0.122883 0.570000 14 31 45
-0.167416 0.123745 0.574000 13 30 44
-0.167335 0.124392 0.577000 9 27 34
-0.166956 0.124823 0.579000 5 23 30
-0.165997 0.124823 0.579000 10 20 25
-0.165324 0.125039 0.580000 9 19 24
-0.164363 0.125039 0.580000 10 18 19
-0.163403 0.125039 0.580000 11 19 20
-0.162442 0.125039 0.580000 10 18 19
-0.161481 0.125039 0.580000 10 18 19
-0.160521 0.125039 0.580000 10 18 17
-0.159560 0.125039 0.580000 8 16 15
-0.158600 0.125039 0.580000 11 19 18
-0.157639 0.125039 0.580000 10 18 17
-0.156679 0.125039 0.580000 11 19 18
-0.155450 0.124823 0.579000 10 18 17
-0.154491 0.124823 0.579000 10 18 17
-0.153532 0.124823 0.579000 10 18 17
-0.152310 0.124608 0.578000 10 18 17
-0.151353 0.124608 0.578000 8 16 15
-0.150395 0.124608 0.578000 10 18 17
-0.149438 0.124608 0.578000 8 16 15
-0.148481 0.124608 0.578000 8 16 15
-0.147524 0.124608 0.578000 8 16 15
-0.146567 0.124608 0.578000 8 16 15
-0.145609 0.124608 0.578000 8 16 15
-0.144652 0.124608 0.578000 8 14 14
-0.143695 0.124608 0.578000 9 15 15
-0.142738 0.124608 0.578000 9 15 15
-0.141781 0.124608 0.578000 9 15 15
-0.140823 0.124608 0.578000 8 14 14
-0.140108 0.124823 0.579000 8 14 14
-0.139149 0.124823 0.579000 8 14 14
-0.138190 0.124823 0.579000 8 14 14
-0.137232 0.124823 0.579000 7 15 14
-0.136273 0.124823 0.579000 7 15 14
-0.135314 0.124823 0.579000 8 16 15
-0.134355 0.124823 0.579000 7 15 14
-0.133396 0.124823 0.579000 8 14 14
-0.132208 0.124608 0.578000 8 14 14
-0.131024 0.124392 0.577000 8 14 14
-0.130069 0.124392 0.577000 8 14 14
-0.128442 0.123745 0.574000 8 14 14
-0.127047 0.123314 0.572000 7 13 13
-0.125218 0.122452 0.568000 8 14 14
-0.124277 0.122452 0.568000 8 14 14
-0.122685 0.121805 0.565000 9 15 15
-0.121103 0.121158 0.562000 9 15 15
-0.120172 0.121158 0.562000 11 17 17
-0.119029 0.120943 0.561000 13 19 19
-0.117890 0.120727 0.560000 7 18 29
-0.116963 0.120727 0.560000 57 68 79
-0.116035 0.120727 0.560000 67 101 119
-0.115108 0.120727 0.560000 65 99 117
-0.114384 0.120943 0.561000 64 103 121
-0.113455 0.120943 0.561000 61 100 118
-0.112927 0.121374 0.563000 50 84 104
-0.112393 0.121805 0.565000 7 41 61
-0.112049 0.122452 0.568000 22 44 58
-0.111108 0.122452 0.568000 22 44 58
-0.110749 0.123099 0.571000 21 41 54
-0.110381 0.123745 0.574000 19 39 52
-0.109811 0.124177 0.576000 20 37 49
-0.109047 0.124392 0.577000 18 35 47
-0.108091 0.124392 0.577000 17 31 37
-0.107507 0.124823 0.579000 13 27 33
-0.106548 0.124823 0.579000 15 23 24
-0.105589 0.124823 0.579000 15 23 24
-0.186688 0.123611 0.569000 21 27 25
-0.184766 0.122959 0.566000 20 28 25
-0.183829 0.122959 0.566000 20 28 25
-0.181599 0.122090 0.562000 20 30 35
-0.180025 0.121656 0.560000 27 37 42
-0.179098 0.121656 0.560000 28 48 61
-0.176898 0.120787 0.556000 66 86 99
-0.175344 0.120352 0.554000 68 108 121
-0.174427 0.120352 0.554000 71 111 124
-0.172883 0.119918 0.552000 69 108 124
-0.171657 0.119701 0.551000 71 110 126
-0.170745 0.119701 0.551000 67 109 124
-0.169832 0.119701 0.551000 67 109 124
-0.168920 0.119701 0.551000 65 109 125
-0.168312 0.119918 0.552000 66 110 126
-0.168611 0.120787 0.556000 70 112 127
-0.168897 0.121656 0.560000 33 75 90
-0.167969 0.121656 0.560000 21 44 61
-0.167937 0.122308 0.563000 16 39 56
-0.167894 0.122959 0.566000 15 37 51
-0.168137 0.123828 0.570000 14 36 50
-0.167193 0.123828 0.570000 12 32 43
-0.167416 0.124697 0.574000 10 30 41
-0.167335 0.125349 0.577000 9 27 34
-0.166956 0.125784 0.579000 5 23 30
-0.165997 0.125784 0.579000 10 20 25
-0.165324 0.126001 0.580000 9 19 24
-0.164363 0.126001 0.580000 10 18 19
-0.163403 0.126001 0.580000 11 19 20
-0.162442 0.126001 0.580000 10 18 17
-0.161481 0.126001 0.580000 10 18 17
-0.160521 0.126001 0.580000 10 18 17
-0.159560 0.126001 0.580000 10 18 17
-0.158600 0.126001 0.580000 11 19 18
-0.157368 0.125784 0.579000 10 18 17
-0.156409 0.125784 0.579000 11 19 18
-0.155450 0.125784 0.579000 10 18 17
-0.154491 0.125784 0.579000 10 18 17
-0.153532 0.125784 0.579000 10 18 17
-0.152310 0.125566 0.578000 10 18 17
-0.151353 0.125566 0.578000 8 16 15
-0.150395 0.125566 0.578000 10 18 17
-0.149438 0.125566 0.578000 10 18 17
-0.148481 0.125566 0.578000 8 16 15
-0.147524 0.125566 0.578000 8 16 15
-0.146567 0.125566 0.578000 10 18 17
-0.145609 0.125566 0.578000 8 16 15
-0.144652 0.125566 0.578000 9 15 15
-0.143695 0.125566 0.578000 9 15 15
-0.142738 0.125566 0.578000 9 15 15
-0.141781 0.125566 0.578000 9 15 15
-0.140823 0.125566 0.578000 8 14 14
-0.140108 0.125784 0.579000 8 14 14
-0.139149 0.125784 0.579000 8 14 14
-0.138190 0.125784 0.579000 9 15 15
-0.137232 0.125784 0.579000 8 14 14
-0.136273 0.125784 0.579000 8 14 14
-0.135314 0.125784 0.579000 9 15 15
-0.134355 0.125784 0.579000 8 14 14
-0.133396 0.125784 0.579000 8 14 14
-0.132208 0.125566 0.578000 8 14 14
-0.131024 0.125349 0.577000 8 14 14
-0.129618 0.124915 0.575000 9 15 15
-0.128442 0.124697 0.574000 8 14 14
-0.127047 0.124263 0.572000 8 14 14
-0.125218 0.123394 0.568000 8 14 14
-0.124277 0.123394 0.568000 8 14 14
-0.122685 0.122742 0.565000 8 14 14
-0.121103 0.122090 0.562000 9 15 15
-0.120172 0.122090 0.562000 11 17 17
-0.119029 0.121873 0.561000 13 19 19
-0.117890 0.121656 0.560000 11 20 30
-0.116963 0.121656 0.560000 40 49 59
-0.115828 0.121439 0.559000 73 106 121
-0.114902 0.121439 0.559000 69 102 117
-0.114180 0.121656 0.560000 64 103 121
-0.113253 0.121656 0.560000 62 101 119
-0.112727 0.122090 0.562000 67 104 123
-0.112194 0.122525 0.564000 5 42 61
-0.111852 0.123177 0.567000 21 44 61
-0.110913 0.123177 0.567000 20 43 60
-0.110556 0.123828 0.570000 21 43 55
-0.110188 0.124480 0.573000 20 42 54
-0.109621 0.124915 0.575000 21 38 52
-0.108669 0.124915 0.575000 19 36 50
-0.108091 0.125349 0.577000 17 33 41
-0.107507 0.125784 0.579000 12 28 36
-0.106548 0.125784 0.579000 15 25 28
-0.105589 0.125784 0.579000 15 25 28
-0.186688 0.124555 0.569000 21 27 25
-0.184766 0.123898 0.566000 20 28 25
-0.183829 0.123898 0.566000 20 28 25
-0.181599 0.123022 0.562000 20 30 33
-0.180025 0.122585 0.560000 24 34 37
-0.179098 0.122585 0.560000 25 40 53
-0.176898 0.121709 0.556000 47 62 75
-0.175344 0.121271 0.554000 73 111 125
-0.174112 0.121052 0.553000 70 108 122
-0.172883 0.120833 0.552000 69 108 124
-0.171657 0.120614 0.551000 69 108 124
-0.170745 0.120614 0.551000 69 111 128
-0.169832 0.120614 0.551000 69 111 128
-0.168920 0.120614 0.551000 67 109 126
-0.168312 0.120833 0.552000 66 108 125
-0.168611 0.121709 0.556000 73 112 128
-0.168897 0.122585 0.560000 22 61 77
-0.167969 0.122585 0.560000 22 44 58
-0.167937 0.123241 0.563000 17 39 53
-0.167894 0.123898 0.566000 15 35 50
-0.168137 0.124774 0.570000 15 35 50
-0.167193 0.124774 0.570000 12 32 43
-0.167416 0.125649 0.574000 10 30 41
-0.167335 0.126306 0.577000 9 27 34
-0.166956 0.126744 0.579000 6 24 31
-0.165997 0.126744 0.579000 9 21 25
-0.165324 0.126963 0.580000 8 20 24
-0.164363 0.126963 0.580000 10 18 19
-0.163403 0.126963 0.580000 11 19 20
-0.162442 0.126963 0.580000 10 18 17
-0.161481 0.126963 0.580000 8 16 15
-0.160521 0.126963 0.580000 11 17 17
-0.159560 0.126963 0.580000 11 17 17
-0.158600 0.126963 0.580000 10 18 17
-0.157368 0.126744 0.579000 10 18 17
-0.156409 0.126744 0.579000 11 19 18
-0.155450 0.126744 0.579000 10 18 17
-0.154491 0.126744 0.579000 11 17 17
-0.153532 0.126744 0.579000 11 17 17
-0.152573 0.126744 0.579000 10 18 17
-0.151353 0.126525 0.578000 10 18 17
-0.150395 0.126525 0.578000 10 18 17
-0.149438 0.126525 0.578000 10 18 17
-0.148481 0.126525 0.578000 8 16 15
-0.147524 0.126525 0.578000 8 16 15
-0.146567 0.126525 0.578000 8 16 15
-0.145609 0.126525 0.578000 8 16 15
-0.144652 0.126525 0.578000 8 16 15
-0.143695 0.126525 0.578000 8 16 15
-0.142985 0.126744 0.579000 9 15 15
-0.142026 0.126744 0.579000 9 15 15
-0.141067 0.126744 0.579000 8 14 14
-0.140108 0.126744 0.579000 8 14 14
-0.139149 0.126744 0.579000 9 15 15
-0.138429 0.126963 0.580000 9 15 15
-0.137469 0.126963 0.580000 8 14 14
-0.136508 0.126963 0.580000 8 14 14
-0.135314 0.126744 0.579000 9 15 15
-0.134355 0.126744 0.579000 8 14 14
-0.133396 0.126744 0.579000 8 14 14
-0.132208 0.126525 0.578000 9 15 15
-0.131024 0.126306 0.577000 11 14 15
-0.129618 0.125868 0.575000 11 14 15
-0.128666 0.125868 0.575000 8 14 14
-0.127047 0.125211 0.572000 8 14 14
-0.125438 0.124555 0.569000 8 14 14
-0.124496 0.124555 0.569000 8 14 14
-0.122902 0.123898 0.566000 8 14 14
-0.121319 0.123241 0.563000 8 14 14
-0.120386 0.123241 0.563000 9 15 15
-0.119029 0.122803 0.561000 12 18 18
-0.117890 0.122585 0.560000 12 22 29
-0.116963 0.122585 0.560000 30 40 47
-0.115621 0.122147 0.558000 80 111 127
-0.114697 0.122147 0.558000 70 101 117
-0.113976 0.122366 0.559000 65 102 121
-0.113051 0.122366 0.559000 67 104 123
-0.112326 0.122585 0.560000 63 100 121
-0.111995 0.123241 0.563000 45 82 103
-0.111654 0.123898 0.566000 14 40 58
-0.110717 0.123898 0.566000 19 45 63
-0.110362 0.124555 0.569000 21 43 57
-0.109996 0.125211 0.572000 20 42 56
-0.109430 0.125649 0.574000 19 39 52
-0.108480 0.125649 0.574000 17 37 50
-0.107904 0.126087 0.576000 17 35 44
-0.107321 0.126525 0.578000 13 31 40
-0.106548 0.126744 0.579000 15 27 31
-0.105589 0.126744 0.579000 14 26 30
-0.187016 0.125719 0.570000 20 26 24
-0.185093 0.125057 0.567000 20 28 25
-0.184154 0.125057 0.567000 19 27 24
-0.182245 0.124395 0.564000 19 30 30
-0.180025 0.123513 0.560000 22 33 33
-0.179098 0.123513 0.560000 22 35 44
-0.177216 0.122852 0.557000 31 44 53
-0.175661 0.122410 0.555000 67 100 113
-0.174112 0.121969 0.553000 77 110 123
-0.173196 0.121969 0.553000 72 109 126
-0.171657 0.121528 0.551000 72 109 126
-0.170745 0.121528 0.551000 70 112 129
-0.169832 0.121528 0.551000 69 111 128
-0.168920 0.121528 0.551000 69 111 128
-0.168617 0.121969 0.553000 65 107 124
-0.168611 0.122631 0.556000 70 108 122
-0.168897 0.123513 0.560000 17 55 69
-0.167969 0.123513 0.560000 23 43 58
-0.167937 0.124175 0.563000 18 38 53
-0.168191 0.125057 0.567000 15 35 50
-0.168137 0.125719 0.570000 14 34 49
-0.167193 0.125719 0.570000 12 32 43
-0.167416 0.126601 0.574000 10 30 41
-0.167335 0.127263 0.577000 10 28 35
-0.166956 0.127704 0.579000 7 25 32
-0.165997 0.127704 0.579000 9 21 23
-0.165324 0.127924 0.580000 9 21 23
-0.164363 0.127924 0.580000 10 18 19
-0.163403 0.127924 0.580000 11 19 20
-0.162442 0.127924 0.580000 10 18 17
-0.161481 0.127924 0.580000 10 18 17
-0.160521 0.127924 0.580000 10 18 17
-0.159560 0.127924 0.580000 10 18 17
-0.158600 0.127924 0.580000 10 18 17
-0.157639 0.127924 0.580000 10 18 17
-0.156679 0.127924 0.580000 11 19 18
-0.155450 0.127704 0.579000 10 18 17
-0.154491 0.127704 0.579000 10 18 17
-0.153532 0.127704 0.579000 10 18 17
-0.152573 0.127704 0.579000 10 18 17
-0.151353 0.127483 0.578000 10 18 17
-0.150395 0.127483 0.578000 10 18 17
-0.149438 0.127483 0.578000 10 18 17
-0.148481 0.127483 0.578000 8 16 15
-0.147524 0.127483 0.578000 8 16 15
-0.146820 0.127704 0.579000 8 16 15
-0.145861 0.127704 0.579000 10 18 17
-0.144902 0.127704 0.579000 8 16 15
-0.143944 0.127704 0.579000 8 16 15
-0.142985 0.127704 0.579000 9 15 15
-0.142026 0.127704 0.579000 11 17 17
-0.141311 0.127924 0.580000 8 14 14
-0.140350 0.127924 0.580000 9 15 15
-0.139390 0.127924 0.580000 9 15 15
-0.138429 0.127924 0.580000 9 15 15
-0.137469 0.127924 0.580000 8 14 14
-0.136508 0.127924 0.580000 8 14 14
-0.135548 0.127924 0.580000 9 15 15
-0.134587 0.127924 0.580000 8 14 14
-0.133626 0.127924 0.580000 8 14 14
-0.132437 0.127704 0.579000 9 15 15
-0.131251 0.127483 0.578000 9 15 15
-0.129618 0.126822 0.575000 9 15 15
-0.128666 0.126822 0.575000 8 14 14
-0.127269 0.126380 0.573000 8 14 14
-0.125438 0.125498 0.569000 8 14 14
-0.124496 0.125498 0.569000 8 14 14
-0.122902 0.124837 0.566000 8 14 14
-0.121319 0.124175 0.563000 8 14 14
-0.120386 0.124175 0.563000 9 15 15
-0.119029 0.123734 0.561000 11 17 17
-0.117679 0.123293 0.559000 13 20 26
-0.116754 0.123293 0.559000 24 31 37
-0.115621 0.123072 0.558000 78 109 125
-0.114697 0.123072 0.558000 68 99 115
-0.113773 0.123072 0.558000 64 103 121
-0.112848 0.123072 0.558000 67 106 124
-0.112125 0.123293 0.559000 63 100 121
-0.111796 0.123954 0.562000 66 103 124
-0.111457 0.124616 0.565000 10 36 54
-0.110521 0.124616 0.565000 19 45 63
-0.110168 0.125278 0.568000 22 43 60
-0.109804 0.125939 0.571000 21 42 59
-0.109430 0.126601 0.574000 19 39 54
-0.108480 0.126601 0.574000 17 37 52
-0.107904 0.127042 0.576000 18 36 45
-0.107321 0.127483 0.578000 14 32 41
-0.106548 0.127704 0.579000 16 28 32
-0.105589 0.127704 0.579000 12 24 28
-0.104630 0.127704 0.579000 15 26 26
-0.187672 0.127108 0.572000 20 26 24
-0.185419 0.126220 0.568000 20 28 25
-0.184479 0.126220 0.568000 19 27 24
-0.182569 0.125553 0.565000 19 30 28
-0.180668 0.124886 0.562000 20 31 29
-0.179738 0.124886 0.562000 23 35 39
-0.177853 0.124220 0.559000 29 41 45
-0.175977 0.123553 0.556000 46 75 87
-0.174427 0.123109 0.554000 79 108 120
-0.173509 0.123109 0.554000 74 108 126
-0.171969 0.122664 0.552000 74 108 126
-0.170745 0.122442 0.551000 70 112 129
-0.169832 0.122442 0.551000 69 111 128
-0.168920 0.122442 0.551000 69 111 128
-0.168617 0.122886 0.553000 65 107 124
-0.168611 0.123553 0.556000 68 103 116
-0.168897 0.124442 0.560000 19 54 67
-0.167969 0.124442 0.560000 24 44 59
-0.168235 0.125331 0.564000 18 38 53
-0.168191 0.125997 0.567000 15 35 50
-0.168137 0.126664 0.570000 14 34 49
-0.167193 0.126664 0.570000 12 33 41
-0.167416 0.127553 0.574000 10 31 39
-0.167335 0.128220 0.577000 8 30 33
-0.166956 0.128664 0.579000 5 27 30
-0.165997 0.128664 0.579000 9 21 23
-0.165324 0.128886 0.580000 9 21 23
-0.164363 0.128886 0.580000 11 19 20
-0.163403 0.128886 0.580000 10 18 19
-0.162442 0.128886 0.580000 8 19 17
-0.161481 0.128886 0.580000 8 19 17
-0.160521 0.128886 0.580000 10 18 17
-0.159560 0.128886 0.580000 10 18 17
-0.158600 0.128886 0.580000 10 18 17
-0.157639 0.128886 0.580000 10 18 17
-0.156679 0.128886 0.580000 12 18 18
-0.155450 0.128664 0.579000 11 17 17
-0.154491 0.128664 0.579000 10 18 17
-0.153532 0.128664 0.579000 10 18 17
-0.152573 0.128664 0.579000 8 16 15
-0.151614 0.128664 0.579000 10 18 17
-0.150656 0.128664 0.579000 10 18 17
-0.149697 0.128664 0.579000 8 16 15
-0.148738 0.128664 0.579000 8 16 15
-0.147779 0.128664 0.579000 8 16 15
-0.146820 0.128664 0.579000 8 16 15
-0.145861 0.128664 0.579000 8 16 15
-0.144902 0.128664 0.579000 8 16 15
-0.143944 0.128664 0.579000 8 16 15
-0.143232 0.128886 0.580000 8 16 15
-0.142271 0.128886 0.580000 10 18 17
-0.141311 0.128886 0.580000 8 14 14
-0.140592 0.129108 0.581000 9 15 15
-0.139630 0.129108 0.581000 9 15 15
-0.138668 0.129108 0.581000 9 15 15
-0.137706 0.129108 0.581000 9 15 15
-0.136743 0.129108 0.581000 8 14 14
-0.135781 0.129108 0.581000 9 15 15
-0.134587 0.128886 0.580000 8 14 14
-0.133626 0.128886 0.580000 8 14 14
-0.132437 0.128664 0.579000 9 15 15
-0.131251 0.128442 0.578000 9 15 15
-0.129843 0.127997 0.576000 8 14 14
-0.128889 0.127997 0.576000 8 14 14
-0.127269 0.127331 0.573000 8 14 14
-0.125659 0.126664 0.570000 8 14 14
-0.124715 0.126664 0.570000 8 14 14
-0.122902 0.125775 0.566000 8 14 14
-0.121319 0.125109 0.563000 8 14 14
-0.120386 0.125109 0.563000 9 15 15
-0.119029 0.124664 0.561000 11 17 17
-0.117679 0.124220 0.559000 14 21 29
-0.116754 0.124220 0.559000 19 26 34
-0.115621 0.123997 0.558000 75 106 122
-0.114697 0.123997 0.558000 68 99 115
-0.113773 0.123997 0.558000 65 104 122
-0.112848 0.123997 0.558000 67 106 124
-0.112125 0.124220 0.559000 65 104 122
-0.111796 0.124886 0.562000 65 104 122
-0.111457 0.125553 0.565000 27 57 76
-0.110521 0.125553 0.565000 16 46 65
-0.110168 0.126220 0.568000 20 43 60
-0.109804 0.126886 0.571000 19 42 59
-0.109430 0.127553 0.574000 20 42 56
-0.108480 0.127553 0.574000 17 39 53
-0.107904 0.127997 0.576000 19 36 48
-0.107321 0.128442 0.578000 14 31 43
-0.106548 0.128664 0.579000 15 28 37
-0.105589 0.128664 0.579000 12 25 34
-0.104630 0.128664 0.579000 17 25 26
-0.175977 0.124475 0.556000 39 61 73
-0.174427 0.124027 0.554000 81 103 115
-0.173509 0.124027 0.554000 74 109 124
-0.171969 0.123580 0.552000 74 109 124
-0.170745 0.123356 0.551000 69 111 126
-0.169832 0.123356 0.551000 69 111 126
-0.168920 0.123356 0.551000 69 111 128
-0.168617 0.123803 0.553000 65 107 124
-0.168611 0.124475 0.556000 68 103 118
-0.168897 0.125371 0.560000 18 53 68
-0.167969 0.125371 0.560000 24 44 59
-0.167937 0.126042 0.563000 18 38 53
-0.167894 0.126714 0.566000 16 36 51
-0.168137 0.127609 0.570000 14 34 49
-0.167193 0.127609 0.570000 12 33 41
-0.167416 0.128505 0.574000 10 31 39
-0.167335 0.129176 0.577000 7 28 34
-0.166956 0.129624 0.579000 7 28 34
-0.165997 0.129624 0.579000 10 22 26
-0.165039 0.129624 0.579000 9 21 25
-0.164363 0.129848 0.580000 11 19 20
-0.163403 0.129848 0.580000 10 18 19
-0.162442 0.129848 0.580000 8 19 17
-0.161481 0.129848 0.580000 8 19 17
-0.160521 0.129848 0.580000 10 18 17
-0.159560 0.129848 0.580000 10 18 17
-0.158600 0.129848 0.580000 10 18 17
-0.157639 0.129848 0.580000 11 19 18
-0.156679 0.129848 0.580000 12 18 18
-0.155450 0.129624 0.579000 11 17 17
-0.154491 0.129624 0.579000 10 18 17
-0.153532 0.129624 0.579000 10 18 17
-0.152573 0.129624 0.579000 8 16 15
-0.151614 0.129624 0.579000 8 16 15
-0.150656 0.129624 0.579000 8 16 15
-0.149697 0.129624 0.579000 8 16 15
-0.148738 0.129624 0.579000 8 16 15
-0.147779 0.129624 0.579000 8 16 15
-0.146820 0.129624 0.579000 8 16 15
-0.145861 0.129624 0.579000 8 16 15
-0.144902 0.129624 0.579000 8 16 15
-0.143944 0.129624 0.579000 8 16 15
-0.143232 0.129848 0.580000 8 16 15
-0.142271 0.129848 0.580000 10 18 17
-0.141311 0.129848 0.580000 8 16 15
-0.140592 0.130072 0.581000 10 18 17
-0.139630 0.130072 0.581000 9 15 15
-0.138668 0.130072 0.581000 8 14 14
-0.137706 0.130072 0.581000 9 15 15
-0.136743 0.130072 0.581000 8 14 14
-0.135781 0.130072 0.581000 8 14 14
-0.134587 0.129848 0.580000 8 14 14
-0.133626 0.129848 0.580000 8 14 14
-0.132437 0.129624 0.579000 9 15 15
-0.131251 0.129400 0.578000 8 14 14
-0.129843 0.128953 0.576000 8 14 14
-0.128889 0.128953 0.576000 8 14 14
-0.127269 0.128281 0.573000 7 13 13
-0.125659 0.127609 0.570000 8 14 14
-0.124715 0.127609 0.570000 8 14 14
-0.122902 0.126714 0.566000 8 14 14
-0.121319 0.126042 0.563000 8 14 14
-0.120386 0.126042 0.563000 8 14 14
-0.119029 0.125594 0.561000 9 15 15
-0.117679 0.125147 0.559000 14 21 29
-0.116754 0.125147 0.559000 15 22 30
-0.115414 0.124699 0.557000 71 102 118
-0.114491 0.124699 0.557000 67 98 114
-0.113569 0.124699 0.557000 65 104 122
-0.112646 0.124699 0.557000 66 105 123
-0.112125 0.125147 0.559000 64 106 123
-0.111398 0.125371 0.560000 63 105 122
-0.111063 0.126042 0.563000 52 84 102
-0.110130 0.126042 0.563000 13 45 63
-0.109780 0.126714 0.566000 21 44 61
-0.109612 0.127609 0.570000 19 42 59
-0.109049 0.128057 0.572000 20 41 58
-0.108102 0.128057 0.572000 17 38 55
-0.107716 0.128729 0.575000 17 37 48
-0.107135 0.129176 0.577000 15 35 46
-0.106548 0.129624 0.579000 14 30 38
-0.105589 0.129624 0.579000 11 27 35
-0.104630 0.129624 0.579000 15 25 28
-0.103671 0.129624 0.579000 15 25 28
-0.102890 0.129848 0.580000 16 27 25
-0.101929 0.129848 0.580000 16 27 25
-0.100969 0.129848 0.580000 16 27 25
-0.100181 0.130072 0.581000 15 26 24
-0.176294 0.125623 0.557000 21 38 50
-0.174742 0.125171 0.555000 67 84 96
-0.173823 0.125171 0.555000 77 110 125
-0.172280 0.124720 0.553000 76 109 124
-0.171055 0.124495 0.552000 71 110 126
-0.170141 0.124495 0.552000 71 110 126
-0.169226 0.124495 0.552000 69 111 128
-0.168922 0.124946 0.554000 66 108 125
-0.168611 0.125397 0.556000 69 101 119
-0.168897 0.126299 0.560000 15 47 65
-0.167969 0.126299 0.560000 24 44 59
-0.167937 0.126976 0.563000 18 38 53
-0.167894 0.127652 0.566000 16 36 51
-0.168137 0.128555 0.570000 14 34 49
-0.167193 0.128555 0.570000 12 33 41
-0.167416 0.129457 0.574000 10 31 39
-0.167335 0.130133 0.577000 7 28 34
-0.166956 0.130584 0.579000 7 28 34
-0.165997 0.130584 0.579000 10 22 26
-0.165039 0.130584 0.579000 9 21 25
-0.164363 0.130810 0.580000 11 19 20
-0.163403 0.130810 0.580000 10 18 19
-0.162442 0.130810 0.580000 8 19 17
-0.161481 0.130810 0.580000 8 19 17
-0.160521 0.130810 0.580000 10 18 17
-0.159560 0.130810 0.580000 10 18 17
-0.158600 0.130810 0.580000 10 18 17
-0.157639 0.130810 0.580000 11 19 18
-0.156679 0.130810 0.580000 12 18 18
-0.155450 0.130584 0.579000 11 17 17
-0.154491 0.130584 0.579000 11 17 17
-0.153532 0.130584 0.579000 9 15 15
-0.152573 0.130584 0.579000 10 18 17
-0.151614 0.130584 0.579000 8 16 15
-0.150656 0.130584 0.579000 8 16 15
-0.149697 0.130584 0.579000 8 16 15
-0.148738 0.130584 0.579000 7 15 14
-0.147779 0.130584 0.579000 7 15 14
-0.146820 0.130584 0.579000 8 16 15
-0.145861 0.130584 0.579000 8 16 15
-0.145153 0.130810 0.580000 8 16 15
-0.144192 0.130810 0.580000 8 16 15
-0.143232 0.130810 0.580000 8 16 15
-0.142271 0.130810 0.580000 10 18 17
-0.141554 0.131035 0.581000 8 16 15
-0.140592 0.131035 0.581000 10 18 17
-0.139630 0.131035 0.581000 9 15 15
-0.138668 0.131035 0.581000 8 14 14
-0.137706 0.131035 0.581000 9 15 15
-0.136743 0.131035 0.581000 8 14 14
-0.135781 0.131035 0.581000 8 14 14
-0.134819 0.131035 0.581000 8 14 14
-0.133857 0.131035 0.581000 8 14 14
-0.132666 0.130810 0.580000 8 14 14
-0.131251 0.130359 0.578000 9 15 15
-0.129843 0.129908 0.576000 8 14 14
-0.128889 0.129908 0.576000 8 14 14
-0.127491 0.129457 0.574000 8 14 14
-0.125659 0.128555 0.570000 8 14 14
-0.124715 0.128555 0.570000 8 14 14
-0.122902 0.127652 0.566000 8 14 14
-0.121319 0.126976 0.563000 8 14 14
-0.120386 0.126976 0.563000 8 14 14
-0.119029 0.126525 0.561000 9 15 15
-0.117679 0.126074 0.559000 14 19 28
-0.116754 0.126074 0.559000 18 23 32
-0.115414 0.125623 0.557000 68 98 117
-0.114491 0.125623 0.557000 67 97 116
-0.113569 0.125623 0.557000 65 104 122
-0.112646 0.125623 0.557000 66 105 123
-0.111924 0.125848 0.558000 64 106 123
-0.111398 0.126299 0.560000 63 105 122
-0.110865 0.126750 0.562000 67 106 122
-0.109935 0.126750 0.562000 5 44 60
-0.109780 0.127652 0.566000 20 46 62
-0.109227 0.128103 0.568000 17 43 59
-0.109049 0.129006 0.572000 21 42 59
-0.108102 0.129006 0.572000 18 39 56
-0.107529 0.129457 0.574000 17 37 50
-0.106950 0.129908 0.576000 16 36 49
-0.106364 0.130359 0.578000 16 34 43
-0.105407 0.130359 0.578000 12 30 39
-0.104630 0.130584 0.579000 13 23 26
-0.103671 0.130584 0.579000 13 23 26
-0.102713 0.130584 0.579000 16 27 25
-0.101754 0.130584 0.579000 16 27 25
-0.100969 0.130810 0.580000 16 27 25
-0.100008 0.130810 0.580000 16 27 25
-0.176610 0.126773 0.558000 22 35 46
-0.174742 0.126092 0.555000 52 65 76
-0.173823 0.126092 0.555000 82 113 127
-0.172592 0.125865 0.554000 77 108 122
-0.171055 0.125410 0.552000 71 110 126
-0.170141 0.125410 0.552000 71 110 126
-0.169226 0.125410 0.552000 67 109 126
-0.168922 0.125865 0.554000 66 108 125
-0.168611 0.126319 0.556000 69 101 119
-0.168897 0.127228 0.560000 14 46 64
-0.167969 0.127228 0.560000 24 43 61
-0.167937 0.127909 0.563000 19 38 56
-0.167894 0.128591 0.566000 17 37 52
-0.168137 0.129500 0.570000 14 34 49
-0.167193 0.129500 0.570000 14 34 45
-0.167416 0.130409 0.574000 11 31 42
-0.167335 0.131090 0.577000 8 29 35
-0.166956 0.131544 0.579000 8 29 35
-0.165997 0.131544 0.579000 10 22 26
-0.165039 0.131544 0.579000 9 21 25
-0.164363 0.131772 0.580000 11 19 20
-0.163403 0.131772 0.580000 10 18 19
-0.162442 0.131772 0.580000 8 19 17
-0.161481 0.131772 0.580000 8 19 17
-0.160521 0.131772 0.580000 11 19 18
-0.159560 0.131772 0.580000 10 18 17
-0.158600 0.131772 0.580000 10 18 17
-0.157639 0.131772 0.580000 11 19 18
-0.156679 0.131772 0.580000 11 19 18
-0.155718 0.131772 0.580000 10 18 17
-0.154758 0.131772 0.580000 11 17 17
-0.153797 0.131772 0.580000 9 15 15
-0.152573 0.131544 0.579000 11 17 17
-0.151614 0.131544 0.579000 9 15 15
-0.150656 0.131544 0.579000 10 18 17
-0.149955 0.131772 0.580000 8 16 15
-0.148995 0.131772 0.580000 7 15 14
-0.148034 0.131772 0.580000 8 16 15
-0.147074 0.131772 0.580000 8 16 15
-0.146113 0.131772 0.580000 8 16 15
-0.145153 0.131772 0.580000 8 16 15
-0.144441 0.131999 0.581000 8 16 15
-0.143479 0.131999 0.581000 8 16 15
-0.142516 0.131999 0.581000 8 16 15
-0.141554 0.131999 0.581000 8 16 15
-0.140834 0.132226 0.582000 10 18 17
-0.139870 0.132226 0.582000 9 15 15
-0.138906 0.132226 0.582000 9 15 15
-0.137706 0.131999 0.581000 9 15 15
-0.136743 0.131999 0.581000 8 14 14
-0.135781 0.131999 0.581000 8 14 14
-0.134819 0.131999 0.581000 8 14 14
-0.133857 0.131999 0.581000 8 14 14
-0.132666 0.131772 0.580000 8 14 14
-0.131251 0.131317 0.578000 8 14 14
-0.129843 0.130863 0.576000 8 14 14
-0.128889 0.130863 0.576000 8 14 14
-0.127491 0.130409 0.574000 8 14 14
-0.125659 0.129500 0.570000 8 14 14
-0.124715 0.129500 0.570000 8 14 14
-0.122902 0.128591 0.566000 8 14 14
-0.121319 0.127909 0.563000 8 14 14
-0.120386 0.127909 0.563000 8 14 14
-0.119029 0.127455 0.561000 9 15 15
-0.117679 0.127001 0.559000 12 19 27
-0.116754 0.127001 0.559000 15 22 30
-0.115414 0.126546 0.557000 70 101 117
-0.114491 0.126546 0.557000 68 99 115
-0.113569 0.126546 0.557000 65 104 122
-0.112646 0.126546 0.557000 66 105 123
-0.111924 0.126773 0.558000 63 107 123
-0.111398 0.127228 0.560000 62 106 122
-0.110865 0.127682 0.562000 67 109 124
-0.109935 0.127682 0.562000 30 72 87
-0.109780 0.128591 0.566000 18 44 62
-0.109227 0.129045 0.568000 18 44 62
-0.109049 0.129954 0.572000 21 42 59
-0.108102 0.129954 0.572000 18 39 56
-0.107529 0.130409 0.574000 18 38 53
-0.106950 0.130863 0.576000 17 37 52
-0.106364 0.131317 0.578000 16 36 47
-0.105407 0.131317 0.578000 12 32 43
-0.104630 0.131544 0.579000 12 24 26
-0.103671 0.131544 0.579000 12 24 26
-0.102713 0.131544 0.579000 16 27 25
-0.101754 0.131544 0.579000 16 27 25
-0.100969 0.131772 0.580000 18 26 25
-0.100008 0.131772 0.580000 18 26 25
-0.176927 0.127928 0.559000 26 37 46
-0.175057 0.127241 0.556000 35 46 55
-0.174136 0.127241 0.556000 79 107 122
-0.172903 0.127012 0.555000 79 107 122
-0.171365 0.126555 0.553000 73 110 127
-0.170449 0.126555 0.553000 72 109 126
-0.169533 0.126555 0.553000 67 109 126
-0.168922 0.126783 0.554000 66 108 125
-0.168611 0.127241 0.556000 64 96 114
-0.168897 0.128156 0.560000 17 49 67
-0.167969 0.128156 0.560000 26 42 61
-0.167937 0.128843 0.563000 21 37 56
-0.167894 0.129530 0.566000 17 37 52
-0.168137 0.130445 0.570000 16 36 51
-0.167193 0.130445 0.570000 15 35 46
-0.167124 0.131132 0.573000 12 32 43
-0.167045 0.131818 0.576000 9 30 38
-0.166668 0.132276 0.578000 9 30 38
