ply
format ascii 1.0
element vertex 1211
property float x
property float y
property float z
property uchar red
property uchar green
property uchar blue
end_header
-0.078798 -0.044493 0.559000 91 129 143
-0.077873 -0.044493 0.559000 93 131 145
-0.076809 -0.044413 0.558000 90 132 149
-0.075885 -0.044413 0.558000 90 132 149
-0.074961 -0.044413 0.558000 87 129 144
-0.074037 -0.044413 0.558000 91 133 148
-0.073113 -0.044413 0.558000 76 120 136
-0.072318 -0.044493 0.559000 33 77 93
-0.071520 -0.044572 0.560000 5 42 59
-0.070593 -0.044572 0.560000 11 48 65
-0.069790 -0.044652 0.561000 18 48 67
-0.068983 -0.044732 0.562000 13 43 62
-0.068053 -0.044732 0.562000 14 40 58
-0.067241 -0.044811 0.563000 13 39 57
-0.066309 -0.044811 0.563000 16 38 52
-0.049263 -0.044572 0.560000 6 38 56
-0.048335 -0.044572 0.560000 49 81 99
-0.047408 -0.044572 0.560000 94 136 155
-0.046480 -0.044572 0.560000 109 151 170
-0.045634 -0.044652 0.561000 99 146 159
-0.044705 -0.044652 0.561000 103 150 163
-0.043776 -0.044652 0.561000 108 146 160
-0.043000 -0.044811 0.563000 93 131 145
-0.042068 -0.044811 0.563000 104 138 148
-0.041208 -0.044891 0.564000 65 99 109
-0.040417 -0.045050 0.566000 7 29 39
-0.084024 -0.043878 0.563000 20 31 29
-0.082796 -0.043722 0.561000 12 26 32
-0.081867 -0.043722 0.561000 51 65 71
-0.080794 -0.043644 0.560000 105 137 148
-0.079724 -0.043566 0.559000 99 131 142
-0.078798 -0.043566 0.559000 89 128 144
-0.077873 -0.043566 0.559000 90 129 145
-0.076809 -0.043488 0.558000 86 128 145
-0.075885 -0.043488 0.558000 91 133 150
-0.074961 -0.043488 0.558000 87 126 144
-0.074037 -0.043488 0.558000 40 79 97
-0.073113 -0.043488 0.558000 12 49 66
-0.072318 -0.043566 0.559000 9 46 63
-0.071520 -0.043644 0.560000 17 48 62
-0.070593 -0.043644 0.560000 14 45 59
-0.048335 -0.043644 0.560000 9 31 45
-0.047408 -0.043644 0.560000 16 43 65
-0.046480 -0.043644 0.560000 79 106 128
-0.045553 -0.043644 0.560000 108 150 165
-0.044626 -0.043644 0.560000 112 154 169
-0.043698 -0.043644 0.560000 107 147 160
-0.042771 -0.043644 0.560000 103 143 156
-0.041843 -0.043644 0.560000 95 133 147
-0.041062 -0.043800 0.562000 98 136 150
-0.040203 -0.043878 0.563000 80 112 123
-0.039480 -0.044111 0.566000 28 60 71
-0.085258 -0.043097 0.565000 20 31 31
-0.083875 -0.042868 0.562000 18 29 29
-0.082649 -0.042715 0.560000 19 40 46
-0.081721 -0.042715 0.560000 101 122 128
-0.080794 -0.042715 0.560000 95 130 143
-0.079724 -0.042639 0.559000 91 126 139
-0.078798 -0.042639 0.559000 86 128 143
-0.077873 -0.042639 0.559000 84 126 141
-0.076947 -0.042639 0.559000 90 132 151
-0.076021 -0.042639 0.559000 59 101 120
-0.075095 -0.042639 0.559000 27 57 78
-0.074170 -0.042639 0.559000 4 34 55
-0.073375 -0.042715 0.560000 19 45 63
-0.072577 -0.042791 0.561000 16 42 60
-0.071776 -0.042868 0.562000 16 43 56
-0.047408 -0.042715 0.560000 11 31 46
-0.046480 -0.042715 0.560000 11 31 46
-0.045553 -0.042715 0.560000 41 68 88
-0.044546 -0.042639 0.559000 108 135 155
-0.043620 -0.042639 0.559000 116 154 168
-0.042771 -0.042715 0.560000 111 149 163
-0.041843 -0.042715 0.560000 103 141 155
-0.040916 -0.042715 0.560000 101 139 153
-0.040060 -0.042791 0.561000 100 140 153
-0.039270 -0.042944 0.563000 88 128 141
-0.038338 -0.042944 0.563000 46 73 86
-0.037539 -0.043097 0.565000 2 29 42
-0.085889 -0.042010 0.563000 20 31 29
-0.084956 -0.042010 0.563000 20 30 33
-0.083576 -0.041787 0.560000 15 25 28
-0.082649 -0.041787 0.560000 90 115 122
-0.081721 -0.041787 0.560000 117 142 149
-0.080650 -0.041712 0.559000 88 128 139
-0.079724 -0.041712 0.559000 86 126 137
-0.078798 -0.041712 0.559000 84 126 143
-0.077873 -0.041712 0.559000 91 133 150
-0.076947 -0.041712 0.559000 41 77 101
-0.076157 -0.041787 0.560000 4 40 64
-0.075230 -0.041787 0.560000 19 41 63
-0.074302 -0.041787 0.560000 15 37 59
-0.073637 -0.041936 0.562000 18 39 56
-0.044546 -0.041712 0.559000 23 39 58
-0.043620 -0.041712 0.559000 94 126 144
-0.042694 -0.041712 0.559000 125 157 175
-0.041769 -0.041712 0.559000 113 153 166
-0.040843 -0.041712 0.559000 107 147 160
-0.039989 -0.041787 0.560000 102 145 157
-0.039131 -0.041861 0.561000 98 141 153
-0.038202 -0.041861 0.561000 100 135 148
-0.037406 -0.042010 0.563000 56 91 104
-0.036603 -0.042160 0.565000 7 29 39
-0.087129 -0.041223 0.565000 22 33 31
-0.085889 -0.041077 0.563000 22 33 31
-0.084956 -0.041077 0.563000 14 26 32
-0.083576 -0.040858 0.560000 73 85 91
-0.082649 -0.040858 0.560000 105 137 144
-0.081721 -0.040858 0.560000 98 130 137
-0.080650 -0.040785 0.559000 85 125 138
-0.079724 -0.040785 0.559000 83 123 136
-0.078798 -0.040785 0.559000 88 130 149
-0.078012 -0.040858 0.560000 38 80 99
-0.077084 -0.040858 0.560000 5 37 59
-0.076293 -0.040931 0.561000 14 46 68
-0.043620 -0.040785 0.559000 6 28 50
-0.042694 -0.040785 0.559000 87 109 131
-0.041769 -0.040785 0.559000 121 159 173
-0.040843 -0.040785 0.559000 111 149 163
-0.039989 -0.040858 0.560000 108 151 163
-0.039131 -0.040931 0.561000 106 149 161
-0.038202 -0.040931 0.561000 104 144 157
-0.037406 -0.041077 0.563000 108 148 161
-0.036603 -0.041223 0.565000 78 112 122
-0.035667 -0.041223 0.565000 15 49 59
-0.086821 -0.040143 0.563000 22 33 33
-0.085431 -0.039929 0.560000 17 28 28
-0.084504 -0.039929 0.560000 43 64 72
-0.083427 -0.039858 0.559000 108 129 137
-0.082501 -0.039858 0.559000 92 128 138
-0.081576 -0.039858 0.559000 86 122 132
-0.080650 -0.039858 0.559000 80 122 137
-0.079724 -0.039858 0.559000 81 123 138
-0.078798 -0.039858 0.559000 46 85 105
-0.078012 -0.039929 0.560000 1 40 60
-0.077084 -0.039929 0.560000 11 38 58
-0.076293 -0.040001 0.561000 12 39 59
-0.042694 -0.039858 0.559000 9 25 44
-0.041769 -0.039858 0.559000 84 116 134
-0.040843 -0.039858 0.559000 121 153 171
-0.039917 -0.039858 0.559000 109 152 162
-0.038991 -0.039858 0.559000 108 151 161
-0.038066 -0.039858 0.559000 106 151 162
-0.037206 -0.039929 0.560000 101 146 157
-0.036409 -0.040072 0.562000 96 136 149
-0.035478 -0.040072 0.562000 95 135 148
-0.034732 -0.040286 0.565000 37 64 75
-0.086513 -0.039070 0.561000 19 31 35
-0.085278 -0.038931 0.559000 25 37 41
-0.084353 -0.038931 0.559000 94 121 130
-0.083278 -0.038861 0.558000 99 126 135
-0.082354 -0.038861 0.558000 86 126 137
-0.081430 -0.038861 0.558000 79 119 130
-0.080506 -0.038861 0.558000 80 124 142
-0.079581 -0.038861 0.558000 44 88 106
-0.078798 -0.038931 0.559000 3 40 61
-0.078012 -0.039001 0.560000 8 45 66
-0.077084 -0.039001 0.560000 11 37 55
-0.076429 -0.039140 0.562000 11 37 55
-0.041769 -0.038931 0.559000 3 28 49
-0.040770 -0.038861 0.558000 87 112 133
-0.039846 -0.038861 0.558000 115 160 171
-0.038922 -0.038861 0.558000 110 155 166
-0.037998 -0.038861 0.558000 108 155 168
-0.037140 -0.038931 0.559000 102 149 162
-0.036279 -0.039001 0.560000 101 145 161
-0.035352 -0.039001 0.560000 93 137 153
-0.034547 -0.039140 0.562000 107 140 155
-0.033736 -0.039279 0.564000 58 91 106
-0.087753 -0.038276 0.563000 22 33 31
-0.086513 -0.038140 0.561000 11 29 36
-0.085278 -0.038004 0.559000 83 101 108
-0.084353 -0.038004 0.559000 98 132 140
-0.083278 -0.037936 0.558000 92 126 134
-0.082354 -0.037936 0.558000 82 121 137
-0.081430 -0.037936 0.558000 82 121 137
-0.080506 -0.037936 0.558000 59 100 122
-0.079581 -0.037936 0.558000 0 34 56
-0.078939 -0.038072 0.560000 10 44 64
-0.078151 -0.038140 0.561000 8 42 62
-0.077222 -0.038140 0.561000 11 34 51
-0.040770 -0.037936 0.558000 13 29 48
-0.039846 -0.037936 0.558000 96 136 149
-0.038922 -0.037936 0.558000 117 157 170
-0.037998 -0.037936 0.558000 109 156 169
-0.037140 -0.038004 0.559000 105 152 165
-0.036279 -0.038072 0.560000 104 151 168
-0.035352 -0.038072 0.560000 103 150 167
-0.034547 -0.038208 0.562000 106 145 161
-0.033736 -0.038344 0.564000 106 145 161
-0.032977 -0.038548 0.567000 68 99 115
-0.032038 -0.038548 0.567000 9 40 56
-0.031208 -0.038684 0.569000 14 32 39
-0.090096 -0.037541 0.566000 19 30 28
-0.088686 -0.037342 0.563000 19 31 33
-0.087753 -0.037342 0.563000 17 29 31
-0.086204 -0.037077 0.559000 54 81 90
-0.085126 -0.037011 0.558000 104 131 140
-0.084202 -0.037011 0.558000 90 126 136
-0.083278 -0.037011 0.558000 88 124 134
-0.082354 -0.037011 0.558000 80 123 135
-0.081430 -0.037011 0.558000 76 119 131
-0.080506 -0.037011 0.558000 4 41 62
-0.079581 -0.037011 0.558000 4 41 62
-0.078939 -0.037143 0.560000 10 42 60
-0.078151 -0.037210 0.561000 7 39 57
-0.039846 -0.037011 0.558000 23 51 68
-0.038922 -0.037011 0.558000 115 143 160
-0.037998 -0.037011 0.558000 112 159 174
-0.037074 -0.037011 0.558000 109 156 171
-0.036214 -0.037077 0.559000 108 155 172
-0.035289 -0.037077 0.559000 106 153 170
-0.034363 -0.037077 0.559000 105 152 167
-0.033557 -0.037210 0.561000 105 152 167
-0.032802 -0.037409 0.564000 92 134 149
-0.031868 -0.037409 0.564000 87 129 144
-0.031044 -0.037541 0.566000 25 53 68
-0.030266 -0.037740 0.569000 6 34 49
-0.090711 -0.036473 0.564000 20 31 29
-0.089300 -0.036279 0.561000 20 31 29
-0.088371 -0.036279 0.561000 8 25 30
-0.087286 -0.036215 0.560000 40 57 62
-0.086050 -0.036085 0.558000 102 134 143
-0.085126 -0.036085 0.558000 94 126 135
-0.084202 -0.036085 0.558000 86 124 136
-0.083129 -0.036021 0.557000 82 120 132
-0.082206 -0.036021 0.557000 82 121 137
-0.081430 -0.036085 0.558000 28 67 83
-0.080506 -0.036085 0.558000 9 41 61
-0.079724 -0.036150 0.559000 9 41 61
-0.078939 -0.036215 0.560000 11 39 54
-0.039846 -0.036085 0.558000 5 21 40
-0.038922 -0.036085 0.558000 56 72 91
-0.037930 -0.036021 0.557000 121 163 180
-0.037007 -0.036021 0.557000 112 154 171
-0.036085 -0.036021 0.557000 111 158 175
-0.035162 -0.036021 0.557000 111 158 175
-0.034301 -0.036085 0.558000 109 156 173
-0.033437 -0.036150 0.559000 113 160 177
-0.032569 -0.036215 0.560000 103 150 165
-0.031642 -0.036215 0.560000 92 139 154
-0.030879 -0.036409 0.563000 97 131 151
-0.030106 -0.036603 0.566000 48 82 102
-0.029272 -0.036732 0.568000 12 32 45
-0.090229 -0.035349 0.561000 20 31 29
-0.088981 -0.035223 0.559000 20 31 29
-0.088056 -0.035223 0.559000 10 33 40
-0.086974 -0.035160 0.558000 92 115 122
-0.085896 -0.035097 0.557000 91 127 135
-0.084973 -0.035097 0.557000 89 125 133
-0.084051 -0.035097 0.557000 81 121 134
-0.083129 -0.035097 0.557000 78 118 131
-0.082206 -0.035097 0.557000 61 98 115
-0.081430 -0.035160 0.558000 8 45 62
-0.080506 -0.035160 0.558000 16 43 63
-0.079867 -0.035286 0.560000 11 38 58
-0.079080 -0.035349 0.561000 10 37 50
-0.038922 -0.035160 0.558000 17 29 45
-0.037930 -0.035097 0.557000 87 124 141
-0.037007 -0.035097 0.557000 127 164 181
-0.036085 -0.035097 0.557000 112 159 174
-0.035099 -0.035034 0.556000 113 160 175
-0.034178 -0.035034 0.556000 109 158 175
-0.033317 -0.035097 0.557000 111 160 177
-0.032395 -0.035097 0.557000 113 162 177
-0.031529 -0.035160 0.558000 104 153 168
-0.030715 -0.035286 0.560000 104 141 160
-0.029894 -0.035412 0.562000 108 145 164
-0.028963 -0.035412 0.562000 84 112 127
-0.028182 -0.035601 0.565000 19 47 62
-0.090229 -0.034419 0.561000 21 33 35
-0.088981 -0.034296 0.559000 16 28 30
-0.088056 -0.034296 0.559000 75 107 116
-0.086974 -0.034235 0.558000 96 128 137
-0.085896 -0.034173 0.557000 86 124 136
-0.084973 -0.034173 0.557000 82 120 132
-0.084051 -0.034173 0.557000 79 118 134
-0.083129 -0.034173 0.557000 82 121 137
-0.082206 -0.034173 0.557000 29 61 81
-0.081430 -0.034235 0.558000 13 45 65
-0.080506 -0.034235 0.558000 16 39 58
-0.079867 -0.034357 0.560000 13 36 55
-0.079221 -0.034480 0.562000 11 35 47
-0.037930 -0.034173 0.557000 23 51 66
-0.037007 -0.034173 0.557000 129 157 172
-0.036085 -0.034173 0.557000 115 159 173
-0.035099 -0.034112 0.556000 117 161 175
-0.034178 -0.034112 0.556000 110 159 174
-0.033317 -0.034173 0.557000 111 160 175
-0.032395 -0.034173 0.557000 113 162 177
-0.031529 -0.034235 0.558000 109 158 173
-0.030715 -0.034357 0.560000 110 154 170
-0.029894 -0.034480 0.562000 105 149 165
-0.028963 -0.034480 0.562000 104 141 158
-0.028182 -0.034664 0.565000 96 133 150
-0.027343 -0.034787 0.567000 44 71 84
-0.026543 -0.034971 0.570000 5 32 45
-0.092579 -0.033667 0.564000 22 33 31
-0.091645 -0.033667 0.564000 22 33 31
-0.089907 -0.033369 0.559000 12 28 36
-0.088822 -0.033309 0.558000 60 76 84
-0.087898 -0.033309 0.558000 96 135 144
-0.086818 -0.033250 0.557000 83 122 131
-0.085896 -0.033250 0.557000 79 122 134
-0.084973 -0.033250 0.557000 77 120 132
-0.084051 -0.033250 0.557000 81 120 140
-0.083129 -0.033250 0.557000 43 82 102
-0.082206 -0.033250 0.557000 9 36 56
-0.081430 -0.033309 0.558000 15 42 62
-0.080506 -0.033309 0.558000 15 38 55
-0.079867 -0.033429 0.560000 12 35 52
-0.079221 -0.033548 0.562000 10 32 42
-0.037930 -0.033250 0.557000 7 27 42
-0.037007 -0.033250 0.557000 73 93 108
-0.036085 -0.033250 0.557000 129 169 182
-0.035099 -0.033190 0.556000 118 158 171
-0.034117 -0.033130 0.555000 115 162 177
-0.033198 -0.033130 0.555000 115 162 177
-0.032279 -0.033130 0.555000 113 162 179
-0.031416 -0.033190 0.556000 111 160 177
-0.030550 -0.033250 0.557000 108 157 174
-0.029734 -0.033369 0.559000 107 156 173
-0.028808 -0.033369 0.559000 105 152 167
-0.027982 -0.033488 0.561000 99 146 161
-0.027198 -0.033667 0.564000 108 145 164
-0.026357 -0.033787 0.566000 62 99 118
-0.025420 -0.033787 0.566000 9 29 40
-0.024612 -0.033966 0.569000 12 32 43
-0.023753 -0.034085 0.571000 22 35 34
-0.093513 -0.032732 0.564000 25 36 34
-0.091759 -0.032442 0.559000 24 35 35
-0.090833 -0.032442 0.559000 20 31 31
-0.089586 -0.032326 0.557000 38 60 70
-0.088504 -0.032268 0.556000 108 130 140
-0.087583 -0.032268 0.556000 88 128 139
-0.086662 -0.032268 0.556000 81 121 132
-0.085742 -0.032268 0.556000 77 120 132
-0.084821 -0.032268 0.556000 76 119 131
-0.084051 -0.032326 0.557000 86 124 147
-0.083129 -0.032326 0.557000 16 54 77
-0.082354 -0.032384 0.558000 18 43 64
-0.081721 -0.032500 0.560000 16 41 62
-0.080794 -0.032500 0.560000 15 36 53
-0.080009 -0.032558 0.561000 13 34 51
-0.079362 -0.032674 0.563000 11 32 38
-0.037998 -0.032384 0.558000 8 23 38
-0.037007 -0.032326 0.557000 20 35 50
-0.036085 -0.032326 0.557000 126 163 180
-0.035036 -0.032210 0.555000 119 156 173
-0.034117 -0.032210 0.555000 118 165 180
-0.033198 -0.032210 0.555000 115 162 177
-0.032220 -0.032152 0.554000 113 162 179
-0.031303 -0.032152 0.554000 113 162 179
-0.030440 -0.032210 0.555000 109 158 175
-0.029628 -0.032326 0.557000 108 157 174
-0.028705 -0.032326 0.557000 109 160 176
-0.027883 -0.032442 0.559000 108 159 175
-0.027053 -0.032558 0.561000 103 147 165
-0.026264 -0.032732 0.564000 103 147 165
-0.025330 -0.032732 0.564000 90 123 136
-0.024482 -0.032848 0.566000 17 50 63
-0.023628 -0.032964 0.568000 22 36 42
-0.022807 -0.033138 0.571000 23 37 43
-0.091759 -0.031515 0.559000 24 36 38
-0.090833 -0.031515 0.559000 31 43 45
-0.089586 -0.031402 0.557000 85 119 125
-0.088504 -0.031346 0.556000 91 125 131
-0.087583 -0.031346 0.556000 83 126 136
-0.086662 -0.031346 0.556000 79 122 132
-0.085742 -0.031346 0.556000 76 120 136
-0.084821 -0.031346 0.556000 75 119 135
-0.084051 -0.031402 0.557000 53 91 114
-0.083129 -0.031402 0.557000 5 43 66
-0.082354 -0.031459 0.558000 18 43 64
-0.081721 -0.031571 0.560000 14 39 60
-0.080794 -0.031571 0.560000 15 35 50
-0.080152 -0.031684 0.562000 15 35 50
-0.079503 -0.031797 0.564000 15 31 39
-0.038066 -0.031515 0.559000 15 26 37
-0.037007 -0.031402 0.557000 15 26 37
-0.036085 -0.031402 0.557000 84 114 133
-0.035036 -0.031289 0.555000 131 161 180
-0.034117 -0.031289 0.555000 118 165 180
-0.033198 -0.031289 0.555000 116 163 178
-0.032220 -0.031233 0.554000 113 162 177
-0.031303 -0.031233 0.554000 111 160 175
-0.030440 -0.031289 0.555000 108 159 175
-0.029628 -0.031402 0.557000 108 159 175
-0.028705 -0.031402 0.557000 110 161 177
-0.027883 -0.031515 0.559000 112 163 179
-0.027053 -0.031628 0.561000 113 160 177
-0.026264 -0.031797 0.564000 110 157 174
-0.025330 -0.031797 0.564000 99 138 156
-0.024482 -0.031910 0.566000 100 139 157
-0.023628 -0.032022 0.568000 40 64 78
-0.022807 -0.032192 0.571000 9 33 47
-0.092850 -0.030643 0.560000 29 40 38
-0.091430 -0.030479 0.557000 20 37 42
-0.090508 -0.030479 0.557000 83 100 105
-0.089264 -0.030369 0.555000 93 132 139
-0.088345 -0.030369 0.555000 84 123 130
-0.087426 -0.030369 0.555000 78 123 134
-0.086507 -0.030369 0.555000 77 122 133
-0.085587 -0.030369 0.555000 73 120 135
-0.084821 -0.030424 0.556000 77 124 139
-0.084051 -0.030479 0.557000 20 57 78
-0.083129 -0.030479 0.557000 10 47 68
-0.082354 -0.030533 0.558000 19 42 61
-0.081721 -0.030643 0.560000 15 38 57
-0.080794 -0.030643 0.560000 15 35 48
-0.080152 -0.030752 0.562000 15 35 48
-0.079503 -0.030862 0.564000 17 34 39
-0.037007 -0.030479 0.557000 12 21 31
-0.036085 -0.030479 0.557000 35 58 77
-0.035036 -0.030369 0.555000 143 166 185
-0.034055 -0.030314 0.554000 120 164 178
-0.033138 -0.030314 0.554000 119 163 177
-0.032162 -0.030260 0.553000 109 160 172
-0.031247 -0.030260 0.553000 109 160 172
-0.030386 -0.030314 0.554000 108 159 175
-0.029521 -0.030369 0.555000 109 160 176
-0.028602 -0.030369 0.555000 110 161 177
-0.027783 -0.030479 0.557000 115 166 182
-0.026957 -0.030588 0.559000 115 164 181
-0.026031 -0.030588 0.559000 115 164 181
-0.025150 -0.030643 0.560000 114 158 174
-0.024353 -0.030807 0.563000 98 142 158
-0.023503 -0.030916 0.565000 103 140 157
-0.022568 -0.030916 0.565000 66 103 120
-0.021747 -0.031080 0.568000 23 43 54
-0.020880 -0.031190 0.570000 19 39 50
-0.020006 -0.031299 0.572000 30 42 44
-0.093778 -0.029714 0.560000 27 38 38
-0.092353 -0.029555 0.557000 26 37 37
-0.091102 -0.029449 0.555000 49 74 81
-0.090183 -0.029449 0.555000 105 130 137
-0.089103 -0.029396 0.554000 86 125 134
-0.088186 -0.029396 0.554000 82 121 130
-0.087426 -0.029449 0.555000 76 120 134
-0.086507 -0.029449 0.555000 75 119 133
-0.085587 -0.029449 0.555000 69 116 133
-0.084821 -0.029502 0.556000 75 122 139
-0.084202 -0.029608 0.558000 4 38 58
-0.083278 -0.029608 0.558000 13 47 67
-0.082501 -0.029661 0.559000 16 39 56
-0.081867 -0.029767 0.561000 13 36 53
-0.080938 -0.029767 0.561000 17 34 48
-0.080295 -0.029873 0.563000 17 34 48
-0.079644 -0.029979 0.565000 20 34 40
-0.078848 -0.030032 0.566000 19 33 39
-0.037074 -0.029608 0.558000 12 24 30
-0.036149 -0.029608 0.558000 11 28 44
-0.035036 -0.029449 0.555000 120 137 153
-0.034055 -0.029396 0.554000 123 163 176
-0.033138 -0.029396 0.554000 124 164 177
-0.032104 -0.029290 0.552000 110 161 173
-0.031190 -0.029290 0.552000 108 159 171
-0.030276 -0.029290 0.552000 105 159 174
-0.029362 -0.029290 0.552000 106 160 175
-0.028499 -0.029343 0.553000 112 163 177
-0.027683 -0.029449 0.555000 115 166 180
-0.026812 -0.029502 0.556000 116 165 180
-0.025891 -0.029502 0.556000 115 164 179
-0.025060 -0.029608 0.558000 121 168 183
-0.024223 -0.029714 0.560000 110 157 172
-0.023379 -0.029820 0.562000 107 149 166
-0.022448 -0.029820 0.562000 94 136 153
-0.021632 -0.029979 0.565000 99 131 142
-0.020770 -0.030085 0.567000 22 54 65
-0.019936 -0.030245 0.570000 20 36 46
-0.102597 -0.029454 0.573000 30 41 37
-0.101116 -0.029299 0.570000 30 41 39
-0.099645 -0.029145 0.567000 29 40 38
-0.098706 -0.029145 0.567000 27 38 36
-0.097422 -0.029042 0.565000 27 38 36
-0.095803 -0.028837 0.561000 29 40 38
-0.094874 -0.028837 0.561000 27 38 36
-0.093443 -0.028683 0.558000 21 35 41
-0.092021 -0.028528 0.555000 36 50 56
-0.091102 -0.028528 0.555000 97 131 141
-0.090020 -0.028477 0.554000 88 122 132
-0.088942 -0.028426 0.553000 82 122 133
-0.088026 -0.028426 0.553000 80 120 131
-0.087268 -0.028477 0.554000 75 119 133
-0.086351 -0.028477 0.554000 73 117 131
-0.085587 -0.028528 0.555000 71 115 133
-0.084973 -0.028631 0.557000 51 95 113
-0.084202 -0.028683 0.558000 12 44 64
-0.083278 -0.028683 0.558000 14 46 66
-0.082649 -0.028785 0.560000 18 39 56
-0.082013 -0.028888 0.562000 14 35 52
-0.081371 -0.028991 0.564000 16 33 45
-0.080437 -0.028991 0.564000 17 34 46
-0.079785 -0.029094 0.566000 20 34 40
-0.078848 -0.029094 0.566000 20 34 40
-0.037074 -0.028683 0.558000 14 26 30
-0.036149 -0.028683 0.558000 6 21 34
-0.035036 -0.028528 0.555000 72 87 100
-0.033994 -0.028426 0.553000 133 171 183
-0.033078 -0.028426 0.553000 125 163 175
-0.032046 -0.028323 0.551000 110 161 173
-0.031134 -0.028323 0.551000 108 159 171
-0.030221 -0.028323 0.551000 105 159 174
-0.029309 -0.028323 0.551000 105 159 174
-0.028448 -0.028374 0.552000 113 164 178
-0.027583 -0.028426 0.553000 115 166 180
-0.026716 -0.028477 0.554000 116 165 180
-0.025798 -0.028477 0.554000 115 164 179
-0.024926 -0.028528 0.555000 117 166 181
-0.024093 -0.028631 0.557000 111 160 175
-0.023295 -0.028785 0.560000 113 157 173
-0.022368 -0.028785 0.560000 106 150 166
-0.021556 -0.028940 0.563000 107 142 155
-0.020733 -0.029094 0.566000 109 144 157
-0.019866 -0.029197 0.568000 41 65 77
-0.018925 -0.029197 0.568000 18 42 54
-0.102597 -0.028503 0.573000 29 40 38
-0.101116 -0.028354 0.570000 29 40 38
-0.099645 -0.028205 0.567000 29 40 38
-0.098706 -0.028205 0.567000 27 38 36
-0.097422 -0.028105 0.565000 26 37 35
-0.095803 -0.027907 0.561000 29 40 38
-0.094874 -0.027907 0.561000 29 40 38
-0.093443 -0.027757 0.558000 22 43 51
-0.092021 -0.027608 0.555000 95 116 124
-0.091102 -0.027608 0.555000 84 119 132
-0.090020 -0.027558 0.554000 83 118 131
-0.088942 -0.027509 0.553000 80 120 133
-0.088026 -0.027509 0.553000 79 119 132
-0.087268 -0.027558 0.554000 72 116 132
-0.086351 -0.027558 0.554000 70 114 130
-0.085587 -0.027608 0.555000 76 118 135
-0.084973 -0.027708 0.557000 34 76 93
-0.084353 -0.027807 0.559000 13 43 62
-0.083427 -0.027807 0.559000 14 44 63
-0.082796 -0.027907 0.561000 17 39 53
-0.082159 -0.028006 0.563000 14 36 50
-0.081515 -0.028105 0.565000 17 34 46
-0.080580 -0.028105 0.565000 17 34 46
-0.079785 -0.028155 0.566000 20 34 38
-0.078987 -0.028205 0.567000 20 34 38
-0.037074 -0.027757 0.558000 11 23 25
-0.036149 -0.027757 0.558000 3 18 31
-0.035036 -0.027608 0.555000 38 53 66
-0.033994 -0.027509 0.553000 138 177 186
-0.033078 -0.027509 0.553000 124 163 172
-0.032046 -0.027409 0.551000 113 165 174
-0.031134 -0.027409 0.551000 107 159 168
-0.030221 -0.027409 0.551000 104 158 173
-0.029309 -0.027409 0.551000 105 159 174
-0.028448 -0.027459 0.552000 112 163 179
-0.027583 -0.027509 0.553000 114 165 181
-0.026716 -0.027558 0.554000 116 165 180
-0.025798 -0.027558 0.554000 116 165 180
-0.024926 -0.027608 0.555000 116 165 180
-0.024093 -0.027708 0.557000 114 163 178
-0.023295 -0.027857 0.560000 114 163 178
-0.022368 -0.027857 0.560000 113 162 177
-0.021556 -0.028006 0.563000 109 151 166
-0.020733 -0.028155 0.566000 106 148 163
-0.019866 -0.028255 0.568000 113 148 161
-0.018925 -0.028255 0.568000 54 89 102
-0.102239 -0.027457 0.571000 27 38 36
-0.100761 -0.027313 0.568000 27 38 36
-0.099469 -0.027217 0.566000 26 37 35
-0.098532 -0.027217 0.566000 26 37 35
-0.096905 -0.027024 0.562000 26 37 35
-0.095632 -0.026928 0.560000 26 38 40
-0.094705 -0.026928 0.560000 22 34 36
-0.093275 -0.026784 0.557000 53 82 92
-0.092021 -0.026688 0.555000 102 131 141
-0.091102 -0.026688 0.555000 83 118 131
-0.089858 -0.026592 0.553000 82 117 130
-0.088942 -0.026592 0.553000 73 115 130
-0.088026 -0.026592 0.553000 73 115 130
-0.087268 -0.026640 0.554000 71 115 131
-0.086351 -0.026640 0.554000 69 113 129
-0.085587 -0.026688 0.555000 73 115 132
-0.084973 -0.026784 0.557000 15 57 74
-0.084353 -0.026880 0.559000 13 43 62
-0.083427 -0.026880 0.559000 11 41 60
-0.082796 -0.026976 0.561000 15 37 51
-0.082159 -0.027072 0.563000 14 36 50
-0.081515 -0.027169 0.565000 16 34 41
-0.080580 -0.027169 0.565000 16 34 41
-0.079785 -0.027217 0.566000 19 33 37
-0.078848 -0.027217 0.566000 19 33 37
-0.037074 -0.026832 0.558000 10 22 24
-0.036149 -0.026832 0.558000 8 21 32
-0.035036 -0.026688 0.555000 20 33 44
-0.033994 -0.026592 0.553000 129 165 175
-0.033078 -0.026592 0.553000 127 163 173
-0.032046 -0.026495 0.551000 114 166 175
-0.031134 -0.026495 0.551000 108 160 169
-0.030221 -0.026495 0.551000 105 159 174
-0.029309 -0.026495 0.551000 106 160 175
-0.028396 -0.026495 0.551000 112 163 179
-0.027533 -0.026543 0.552000 113 164 180
-0.026668 -0.026592 0.553000 114 165 181
-0.025752 -0.026592 0.553000 114 165 181
-0.024881 -0.026640 0.554000 114 165 179
-0.024050 -0.026736 0.556000 114 165 179
-0.023212 -0.026832 0.558000 115 166 180
-0.022288 -0.026832 0.558000 114 165 179
-0.021479 -0.026976 0.561000 109 158 173
-0.020660 -0.027120 0.564000 101 150 165
-0.019831 -0.027265 0.567000 116 154 168
-0.018892 -0.027265 0.567000 69 107 121
-0.018048 -0.027409 0.570000 21 39 46
-0.101881 -0.026417 0.569000 25 36 34
-0.100584 -0.026324 0.567000 27 38 36
-0.099118 -0.026185 0.564000 26 37 35
-0.098184 -0.026185 0.564000 26 37 35
-0.096732 -0.026046 0.561000 26 37 35
-0.095291 -0.025907 0.558000 17 31 35
-0.094367 -0.025907 0.558000 52 66 70
-0.092940 -0.025767 0.555000 101 133 142
-0.091855 -0.025721 0.554000 87 119 128
-0.090938 -0.025721 0.554000 80 118 132
-0.089858 -0.025674 0.553000 79 117 131
-0.088942 -0.025674 0.553000 71 115 131
-0.088026 -0.025674 0.553000 70 114 130
-0.087268 -0.025721 0.554000 70 114 132
-0.086351 -0.025721 0.554000 69 113 131
-0.085587 -0.025767 0.555000 74 116 135
-0.084973 -0.025860 0.557000 0 42 61
-0.084353 -0.025953 0.559000 17 44 64
-0.083427 -0.025953 0.559000 13 40 60
-0.082649 -0.025999 0.560000 13 37 49
-0.082013 -0.026092 0.562000 11 35 47
-0.081371 -0.026185 0.564000 17 34 39
-0.080437 -0.026185 0.564000 15 32 37
-0.079785 -0.026278 0.566000 19 31 33
-0.078848 -0.026278 0.566000 21 33 35
-0.037074 -0.025907 0.558000 9 21 23
-0.036149 -0.025907 0.558000 9 22 31
-0.035036 -0.025767 0.555000 6 19 28
-0.033994 -0.025674 0.553000 115 149 159
-0.033078 -0.025674 0.553000 130 164 174
-0.032046 -0.025582 0.551000 114 166 175
-0.031134 -0.025582 0.551000 110 162 171
-0.030221 -0.025582 0.551000 106 160 175
-0.029309 -0.025582 0.551000 107 161 176
-0.028396 -0.025582 0.551000 110 161 177
-0.027484 -0.025582 0.551000 112 163 179
-0.026619 -0.025628 0.552000 114 165 181
-0.025705 -0.025628 0.552000 114 165 181
-0.024881 -0.025721 0.554000 114 165 181
-0.024007 -0.025767 0.555000 116 167 183
-0.023212 -0.025907 0.558000 116 167 181
-0.022288 -0.025907 0.558000 114 165 179
-0.021441 -0.025999 0.560000 109 160 174
-0.020623 -0.026139 0.563000 105 156 170
-0.019796 -0.026278 0.566000 111 148 165
-0.018858 -0.026278 0.566000 23 60 77
-0.101881 -0.025474 0.569000 24 35 33
-0.100584 -0.025384 0.567000 26 37 35
-0.099118 -0.025250 0.564000 25 36 34
-0.098184 -0.025250 0.564000 25 36 34
-0.096732 -0.025116 0.561000 22 33 31
-0.095291 -0.024981 0.558000 34 53 57
-0.094367 -0.024981 0.558000 110 129 133
-0.092940 -0.024847 0.555000 90 124 132
-0.091855 -0.024802 0.554000 85 119 127
-0.090938 -0.024802 0.554000 74 116 131
-0.089858 -0.024757 0.553000 73 115 130
-0.088942 -0.024757 0.553000 70 114 130
-0.088026 -0.024757 0.553000 70 114 130
-0.087268 -0.024802 0.554000 70 114 132
-0.086351 -0.024802 0.554000 69 113 131
-0.085587 -0.024847 0.555000 66 108 127
-0.084973 -0.024936 0.557000 1 43 62
-0.084353 -0.025026 0.559000 16 44 61
-0.083427 -0.025026 0.559000 12 40 57
-0.082649 -0.025071 0.560000 15 37 47
-0.082013 -0.025160 0.562000 13 35 45
-0.081371 -0.025250 0.564000 15 32 37
-0.080437 -0.025250 0.564000 15 32 37
-0.079785 -0.025339 0.566000 17 31 33
-0.037074 -0.024981 0.558000 8 20 22
-0.036149 -0.024981 0.558000 10 21 32
-0.035036 -0.024847 0.555000 4 15 26
-0.033994 -0.024757 0.553000 98 130 141
-0.033078 -0.024757 0.553000 137 169 180
-0.032046 -0.024668 0.551000 114 166 175
-0.031134 -0.024668 0.551000 108 160 169
-0.030221 -0.024668 0.551000 107 161 174
-0.029309 -0.024668 0.551000 107 161 174
-0.028396 -0.024668 0.551000 109 160 176
-0.027484 -0.024668 0.551000 113 164 180
-0.026619 -0.024713 0.552000 114 165 181
-0.025705 -0.024713 0.552000 114 165 181
-0.024881 -0.024802 0.554000 114 165 181
-0.024007 -0.024847 0.555000 116 167 183
-0.023212 -0.024981 0.558000 116 167 181
-0.022288 -0.024981 0.558000 113 164 178
-0.021441 -0.025071 0.560000 111 160 177
-0.020623 -0.025205 0.563000 109 158 175
-0.019796 -0.025339 0.566000 42 77 92
-0.101702 -0.024487 0.568000 24 35 33
-0.100229 -0.024358 0.565000 25 36 34
-0.098766 -0.024228 0.562000 25 36 34
-0.097835 -0.024228 0.562000 22 34 36
-0.096387 -0.024099 0.559000 29 41 43
-0.095120 -0.024013 0.557000 93 118 125
-0.094198 -0.024013 0.557000 94 119 126
-0.092940 -0.023927 0.555000 84 119 132
-0.091855 -0.023883 0.554000 81 116 129
-0.090938 -0.023883 0.554000 73 115 130
-0.089695 -0.023797 0.552000 72 114 129
-0.088781 -0.023797 0.552000 70 114 130
-0.087867 -0.023797 0.552000 70 114 130
-0.087111 -0.023840 0.553000 70 114 132
-0.086195 -0.023840 0.553000 70 114 132
-0.085587 -0.023927 0.555000 49 91 110
-0.084973 -0.024013 0.557000 2 44 63
-0.084202 -0.024056 0.558000 16 44 59
-0.083278 -0.024056 0.558000 12 40 55
-0.082649 -0.024142 0.560000 15 37 47
-0.081867 -0.024185 0.561000 11 33 43
-0.080938 -0.024185 0.561000 14 31 36
-0.080295 -0.024271 0.563000 15 32 37
-0.079503 -0.024315 0.564000 16 30 32
-0.037007 -0.024013 0.557000 8 20 22
-0.036085 -0.024013 0.557000 10 21 30
-0.035036 -0.023927 0.555000 4 15 24
-0.033994 -0.023840 0.553000 70 101 115
-0.033078 -0.023840 0.553000 141 172 186
-0.032046 -0.023754 0.551000 115 167 176
-0.031134 -0.023754 0.551000 108 160 169
-0.030221 -0.023754 0.551000 107 161 174
-0.029309 -0.023754 0.551000 107 161 174
-0.028396 -0.023754 0.551000 107 161 176
-0.027484 -0.023754 0.551000 110 164 179
-0.026619 -0.023797 0.552000 112 166 181
-0.025705 -0.023797 0.552000 113 167 182
-0.024836 -0.023840 0.553000 114 165 179
-0.024007 -0.023927 0.555000 116 167 181
-0.023212 -0.024056 0.558000 115 166 180
-0.022288 -0.024056 0.558000 112 163 177
-0.021441 -0.024142 0.560000 116 162 182
-0.020623 -0.024271 0.563000 56 102 122
-0.101344 -0.023462 0.566000 23 34 32
-0.100229 -0.023421 0.565000 26 37 35
-0.098590 -0.023255 0.561000 25 36 34
-0.097661 -0.023255 0.561000 13 27 31
-0.096215 -0.023131 0.558000 78 92 96
-0.094949 -0.023048 0.556000 93 125 134
-0.094029 -0.023048 0.556000 85 117 126
-0.092940 -0.023006 0.555000 78 117 133
-0.091690 -0.022923 0.553000 76 115 131
-0.090774 -0.022923 0.553000 72 114 129
-0.089695 -0.022882 0.552000 71 113 128
-0.088781 -0.022882 0.552000 70 114 130
-0.087867 -0.022882 0.552000 71 115 131
-0.087111 -0.022923 0.553000 70 114 130
-0.086195 -0.022923 0.553000 69 113 129
-0.085587 -0.023006 0.555000 46 88 107
-0.084821 -0.023048 0.556000 1 43 62
-0.084051 -0.023089 0.557000 15 43 58
-0.083129 -0.023089 0.557000 11 39 54
-0.082354 -0.023131 0.558000 14 36 46
-0.081721 -0.023214 0.560000 11 33 43
-0.080794 -0.023214 0.560000 14 31 36
-0.080009 -0.023255 0.561000 14 31 36
-0.079221 -0.023296 0.562000 16 30 32
-0.037007 -0.023089 0.557000 8 18 21
-0.036085 -0.023089 0.557000 10 20 27
-0.035036 -0.023006 0.555000 4 14 21
-0.033994 -0.022923 0.553000 52 81 93
-0.033078 -0.022923 0.553000 141 170 182
-0.032046 -0.022840 0.551000 114 166 175
-0.031134 -0.022840 0.551000 108 160 169
-0.030221 -0.022840 0.551000 108 159 173
-0.029309 -0.022840 0.551000 108 159 173
-0.028396 -0.022840 0.551000 108 159 175
-0.027484 -0.022840 0.551000 110 161 177
-0.026619 -0.022882 0.552000 114 165 181
-0.025705 -0.022882 0.552000 115 166 182
-0.024836 -0.022923 0.553000 115 166 182
-0.024007 -0.023006 0.555000 115 166 182
-0.023212 -0.023131 0.558000 117 164 181
-0.022288 -0.023131 0.558000 119 166 183
-0.021441 -0.023214 0.560000 96 134 157
-0.101344 -0.022524 0.566000 24 35 33
-0.099697 -0.022364 0.562000 25 36 36
-0.098239 -0.022245 0.559000 17 28 28
-0.097313 -0.022245 0.559000 54 72 79
-0.096043 -0.022165 0.557000 104 122 129
-0.094779 -0.022086 0.555000 83 119 129
-0.093859 -0.022086 0.555000 79 115 125
-0.092940 -0.022086 0.555000 73 115 130
-0.091690 -0.022006 0.553000 73 115 130
-0.090774 -0.022006 0.553000 71 115 131
-0.089695 -0.021967 0.552000 70 114 130
-0.088781 -0.021967 0.552000 70 114 130
-0.088026 -0.022006 0.553000 71 115 131
-0.087111 -0.022006 0.553000 69 113 129
-0.086195 -0.022006 0.553000 70 114 130
-0.085433 -0.022046 0.554000 46 88 107
-0.084668 -0.022086 0.555000 0 42 61
-0.083900 -0.022126 0.556000 15 43 60
-0.082979 -0.022126 0.556000 10 38 55
-0.082206 -0.022165 0.557000 13 35 45
-0.081430 -0.022205 0.558000 10 32 42
-0.080506 -0.022205 0.558000 14 31 36
-0.079724 -0.022245 0.559000 14 31 36
-0.036941 -0.022126 0.556000 8 18 21
-0.036020 -0.022126 0.556000 9 21 27
-0.034973 -0.022046 0.554000 3 15 21
-0.033932 -0.021967 0.552000 45 72 85
-0.033018 -0.021967 0.552000 142 169 182
-0.032046 -0.021927 0.551000 115 165 173
-0.031134 -0.021927 0.551000 110 160 168
-0.030221 -0.021927 0.551000 108 159 173
-0.029309 -0.021927 0.551000 107 158 172
-0.028396 -0.021927 0.551000 108 159 175
-0.027484 -0.021927 0.551000 110 161 177
-0.026619 -0.021967 0.552000 113 164 180
-0.025705 -0.021967 0.552000 115 166 182
-0.024881 -0.022046 0.554000 114 165 181
-0.024050 -0.022126 0.556000 112 163 179
-0.023212 -0.022205 0.558000 112 159 176
-0.022288 -0.022205 0.558000 98 145 162
-0.099697 -0.021432 0.562000 19 31 35
-0.098239 -0.021318 0.559000 49 61 65
-0.097313 -0.021318 0.559000 97 122 129
-0.096043 -0.021242 0.557000 91 116 123
-0.094779 -0.021166 0.555000 79 119 130
-0.093859 -0.021166 0.555000 75 115 126
-0.092940 -0.021166 0.555000 72 116 132
-0.091855 -0.021127 0.554000 71 115 131
-0.090938 -0.021127 0.554000 71 115 131
-0.089695 -0.021051 0.552000 70 114 130
-0.088781 -0.021051 0.552000 70 114 130
-0.088026 -0.021089 0.553000 71 115 131
-0.087111 -0.021089 0.553000 69 113 129
-0.086195 -0.021089 0.553000 70 114 130
-0.085433 -0.021127 0.554000 53 95 114
-0.084668 -0.021166 0.555000 0 42 61
-0.083900 -0.021204 0.556000 13 41 58
-0.082979 -0.021204 0.556000 10 38 55
-0.082206 -0.021242 0.557000 13 35 45
-0.081430 -0.021280 0.558000 10 32 42
-0.080506 -0.021280 0.558000 14 31 36
-0.079724 -0.021318 0.559000 14 31 36
-0.036941 -0.021204 0.556000 6 16 19
-0.036020 -0.021204 0.556000 8 20 24
-0.034973 -0.021127 0.554000 2 14 18
-0.033932 -0.021051 0.552000 41 68 79
-0.033018 -0.021051 0.552000 142 169 180
-0.032046 -0.021013 0.551000 115 165 173
-0.031134 -0.021013 0.551000 111 161 169
-0.030221 -0.021013 0.551000 108 159 173
-0.029309 -0.021013 0.551000 108 159 173
-0.028396 -0.021013 0.551000 107 158 174
-0.027533 -0.021051 0.552000 112 163 179
-0.026668 -0.021089 0.553000 114 165 181
-0.025752 -0.021089 0.553000 115 166 182
-0.024881 -0.021127 0.554000 114 165 181
-0.024050 -0.021204 0.556000 108 159 175
-0.023254 -0.021318 0.559000 114 157 178
-0.100807 -0.020537 0.563000 25 36 34
-0.099342 -0.020428 0.560000 18 34 42
-0.098063 -0.020355 0.558000 91 107 115
-0.097139 -0.020355 0.558000 86 118 125
-0.095870 -0.020282 0.556000 84 116 123
-0.094779 -0.020245 0.555000 74 117 129
-0.093859 -0.020245 0.555000 72 115 127
-0.092940 -0.020245 0.555000 69 116 131
-0.091855 -0.020209 0.554000 70 117 132
-0.090938 -0.020209 0.554000 69 116 131
-0.089695 -0.020136 0.552000 69 116 131
-0.088781 -0.020136 0.552000 70 117 132
-0.088026 -0.020172 0.553000 69 116 131
-0.087111 -0.020172 0.553000 69 113 129
-0.086195 -0.020172 0.553000 70 114 130
-0.085433 -0.020209 0.554000 57 99 118
-0.084516 -0.020209 0.554000 0 41 60
-0.083598 -0.020209 0.554000 11 42 58
-0.082830 -0.020245 0.555000 8 39 55
-0.081911 -0.020245 0.555000 13 35 45
-0.081138 -0.020282 0.556000 10 32 42
-0.080217 -0.020282 0.556000 14 31 36
-0.036874 -0.020245 0.555000 6 16 19
-0.035955 -0.020245 0.555000 9 19 24
-0.034973 -0.020209 0.554000 3 13 18
-0.033932 -0.020136 0.552000 40 67 78
-0.033018 -0.020136 0.552000 142 169 180
-0.032046 -0.020099 0.551000 115 165 173
-0.031134 -0.020099 0.551000 113 163 171
-0.030221 -0.020099 0.551000 108 159 173
-0.029309 -0.020099 0.551000 108 159 173
-0.028396 -0.020099 0.551000 109 160 176
-0.027533 -0.020136 0.552000 113 164 180
-0.026668 -0.020172 0.553000 114 165 181
-0.025752 -0.020172 0.553000 113 164 180
-0.024881 -0.020209 0.554000 111 160 177
-0.024050 -0.020282 0.556000 118 167 184
-0.100448 -0.019534 0.561000 19 30 30
-0.099165 -0.019464 0.559000 68 91 98
-0.097887 -0.019394 0.557000 95 118 125
-0.096965 -0.019394 0.557000 79 118 125
-0.095698 -0.019325 0.555000 76 115 122
-0.094779 -0.019325 0.555000 71 115 129
-0.093859 -0.019325 0.555000 71 115 129
-0.092773 -0.019290 0.554000 70 117 132
-0.091855 -0.019290 0.554000 70 117 132
-0.090938 -0.019290 0.554000 69 116 131
-0.089858 -0.019255 0.553000 69 116 131
-0.088781 -0.019220 0.552000 70 117 132
-0.087867 -0.019220 0.552000 69 116 131
-0.086953 -0.019220 0.552000 69 113 129
-0.086039 -0.019220 0.552000 68 112 128
-0.085125 -0.019220 0.552000 64 106 125
-0.084363 -0.019255 0.553000 0 37 56
-0.083447 -0.019255 0.553000 10 41 57
-0.082532 -0.019255 0.553000 8 39 55
-0.081616 -0.019255 0.553000 11 33 43
-0.080846 -0.019290 0.554000 11 33 43
-0.035826 -0.019255 0.553000 8 20 24
-0.034847 -0.019220 0.552000 1 13 17
-0.033871 -0.019186 0.551000 40 67 78
-0.032959 -0.019186 0.551000 141 168 179
-0.032046 -0.019186 0.551000 115 165 173
-0.031134 -0.019186 0.551000 113 163 171
-0.030221 -0.019186 0.551000 108 159 173
-0.029309 -0.019186 0.551000 108 159 173
-0.028448 -0.019220 0.552000 109 160 174
-0.027533 -0.019220 0.552000 112 163 177
-0.026668 -0.019255 0.553000 112 163 179
-0.025752 -0.019255 0.553000 112 163 179
-0.024926 -0.019325 0.555000 112 159 176
-0.100448 -0.018603 0.561000 51 65 69
-0.099165 -0.018537 0.559000 97 126 134
-0.097887 -0.018471 0.557000 83 112 120
-0.096965 -0.018471 0.557000 75 116 124
-0.095698 -0.018404 0.555000 73 114 122
-0.094779 -0.018404 0.555000 71 115 129
-0.093859 -0.018404 0.555000 70 114 128
-0.092773 -0.018371 0.554000 70 117 132
-0.091855 -0.018371 0.554000 70 117 132
-0.090938 -0.018371 0.554000 69 116 131
-0.089858 -0.018338 0.553000 69 116 131
-0.088781 -0.018305 0.552000 70 117 132
-0.087867 -0.018305 0.552000 68 115 130
-0.086953 -0.018305 0.552000 69 113 129
-0.086039 -0.018305 0.552000 66 110 126
-0.085125 -0.018305 0.552000 64 106 125
-0.084363 -0.018338 0.553000 0 37 56
-0.083447 -0.018338 0.553000 12 40 57
-0.082532 -0.018338 0.553000 9 37 54
-0.081616 -0.018338 0.553000 11 33 43
-0.080846 -0.018371 0.554000 10 32 42
-0.035826 -0.018338 0.553000 8 20 26
-0.034847 -0.018305 0.552000 1 13 19
-0.033871 -0.018272 0.551000 46 73 84
-0.032959 -0.018272 0.551000 139 166 177
-0.032046 -0.018272 0.551000 115 165 175
-0.031134 -0.018272 0.551000 113 163 173
-0.030221 -0.018272 0.551000 108 159 173
-0.029309 -0.018272 0.551000 108 159 173
-0.028448 -0.018305 0.552000 109 160 176
-0.027533 -0.018305 0.552000 110 161 177
-0.026716 -0.018371 0.554000 110 159 176
-0.025798 -0.018371 0.554000 107 156 173
-0.024926 -0.018404 0.555000 98 142 160
-0.100269 -0.017642 0.560000 95 114 118
-0.098987 -0.017579 0.558000 82 118 126
-0.097712 -0.017516 0.556000 78 114 122
-0.096791 -0.017516 0.556000 72 115 125
-0.095698 -0.017484 0.555000 71 114 124
-0.094608 -0.017453 0.554000 71 115 129
-0.093690 -0.017453 0.554000 69 113 127
-0.092773 -0.017453 0.554000 68 115 130
-0.091855 -0.017453 0.554000 70 117 132
-0.090938 -0.017453 0.554000 68 115 130
-0.089858 -0.017421 0.553000 68 115 130
-0.088781 -0.017390 0.552000 69 116 131
-0.087867 -0.017390 0.552000 69 116 131
-0.086953 -0.017390 0.552000 69 113 129
-0.085883 -0.017358 0.551000 65 109 125
-0.084971 -0.017358 0.551000 65 107 124
-0.084058 -0.017358 0.551000 0 37 54
-0.083146 -0.017358 0.551000 12 40 57
-0.082233 -0.017358 0.551000 9 37 54
-0.081321 -0.017358 0.551000 11 33 43
-0.080408 -0.017358 0.551000 11 33 43
-0.033871 -0.017358 0.551000 63 92 104
-0.032959 -0.017358 0.551000 139 168 180
-0.032046 -0.017358 0.551000 115 164 177
-0.031134 -0.017358 0.551000 113 162 175
-0.030221 -0.017358 0.551000 110 159 174
-0.029309 -0.017358 0.551000 109 158 173
-0.028448 -0.017390 0.552000 110 159 176
-0.027533 -0.017390 0.552000 110 159 176
-0.026716 -0.017453 0.554000 111 158 175
-0.025798 -0.017453 0.554000 106 153 170
-0.100269 -0.016713 0.560000 89 115 117
-0.098987 -0.016653 0.558000 77 116 125
-0.097712 -0.016594 0.556000 76 115 124
-0.096791 -0.016594 0.556000 73 116 126
-0.095698 -0.016564 0.555000 71 114 124
-0.094608 -0.016534 0.554000 68 115 128
-0.093690 -0.016534 0.554000 68 115 128
-0.092773 -0.016534 0.554000 68 115 130
-0.091690 -0.016504 0.553000 70 117 132
-0.090774 -0.016504 0.553000 69 116 131
-0.089695 -0.016474 0.552000 68 115 130
-0.088781 -0.016474 0.552000 69 116 131
-0.087708 -0.016444 0.551000 68 115 130
-0.086796 -0.016444 0.551000 69 113 129
-0.085883 -0.016444 0.551000 65 109 125
-0.084816 -0.016415 0.550000 76 118 135
-0.083905 -0.016415 0.550000 0 36 53
-0.082844 -0.016385 0.549000 12 40 57
-0.081935 -0.016385 0.549000 9 37 54
-0.081025 -0.016385 0.549000 10 32 42
-0.033748 -0.016385 0.549000 105 136 150
-0.032839 -0.016385 0.549000 134 165 179
-0.031930 -0.016385 0.549000 116 163 176
-0.031077 -0.016415 0.550000 113 160 173
-0.030166 -0.016415 0.550000 110 159 174
-0.029255 -0.016415 0.550000 109 158 173
-0.028396 -0.016444 0.551000 110 159 174
-0.027533 -0.016474 0.552000 108 157 172
-0.026716 -0.016534 0.554000 110 157 172
-0.100269 -0.015784 0.560000 83 111 115
-0.098987 -0.015728 0.558000 76 117 125
-0.097712 -0.015672 0.556000 75 116 124
-0.096791 -0.015672 0.556000 74 117 129
-0.095698 -0.015643 0.555000 72 115 127
-0.094608 -0.015615 0.554000 68 115 128
-0.093690 -0.015615 0.554000 68 115 128
-0.092605 -0.015587 0.553000 69 116 129
-0.091690 -0.015587 0.553000 70 117 130
-0.090774 -0.015587 0.553000 70 117 130
-0.089695 -0.015559 0.552000 69 116 129
-0.088620 -0.015531 0.551000 68 115 128
-0.087708 -0.015531 0.551000 68 115 128
-0.086796 -0.015531 0.551000 67 114 129
-0.085727 -0.015502 0.550000 64 111 126
-0.084662 -0.015474 0.549000 74 116 133
-0.083753 -0.015474 0.549000 6 48 65
-0.082693 -0.015446 0.548000 11 39 56
-0.081636 -0.015418 0.547000 9 37 54
-0.080730 -0.015418 0.547000 10 32 42
-0.033625 -0.015418 0.547000 121 156 171
-0.032779 -0.015446 0.548000 123 158 173
-0.031872 -0.015446 0.548000 113 161 171
-0.030964 -0.015446 0.548000 111 159 169
-0.030111 -0.015474 0.549000 109 158 171
-0.029202 -0.015474 0.549000 109 158 171
-0.028345 -0.015502 0.550000 106 155 170
-0.027484 -0.015531 0.551000 111 160 175
-0.100269 -0.014856 0.560000 86 115 123
-0.098987 -0.014803 0.558000 76 116 127
-0.097712 -0.014750 0.556000 75 115 126
-0.096791 -0.014750 0.556000 74 117 129
-0.095698 -0.014723 0.555000 72 115 127
-0.094608 -0.014696 0.554000 70 114 128
-0.093690 -0.014696 0.554000 70 114 128
-0.092605 -0.014670 0.553000 69 116 129
-0.091690 -0.014670 0.553000 70 117 130
-0.090774 -0.014670 0.553000 70 117 130
-0.089695 -0.014643 0.552000 69 116 129
-0.088620 -0.014617 0.551000 68 115 128
-0.087708 -0.014617 0.551000 67 114 127
-0.086796 -0.014617 0.551000 68 115 128
-0.085727 -0.014590 0.550000 66 113 126
-0.084662 -0.014564 0.549000 72 114 131
-0.083753 -0.014564 0.549000 43 85 102
-0.082693 -0.014537 0.548000 6 33 53
-0.081636 -0.014511 0.547000 9 36 56
-0.032779 -0.014537 0.548000 118 160 175
-0.031872 -0.014537 0.548000 108 157 170
-0.030964 -0.014537 0.548000 108 157 170
-0.030111 -0.014564 0.549000 109 158 171
-0.029202 -0.014564 0.549000 107 156 169
-0.028345 -0.014590 0.550000 100 149 164
-0.100269 -0.013927 0.560000 76 100 112
-0.098987 -0.013877 0.558000 81 121 132
-0.097712 -0.013828 0.556000 75 115 126
-0.096791 -0.013828 0.556000 74 117 129
-0.095698 -0.013803 0.555000 72 115 127
-0.094608 -0.013778 0.554000 70 114 128
-0.093690 -0.013778 0.554000 70 114 128
-0.092605 -0.013753 0.553000 71 115 129
-0.091524 -0.013728 0.552000 71 115 129
-0.090610 -0.013728 0.552000 70 117 130
-0.089533 -0.013703 0.551000 68 115 128
-0.088460 -0.013678 0.550000 68 115 128
-0.087549 -0.013678 0.550000 67 114 127
-0.086638 -0.013678 0.550000 70 114 128
-0.085571 -0.013653 0.549000 68 112 126
-0.084508 -0.013629 0.548000 70 112 127
-0.083600 -0.013629 0.548000 60 102 117
-0.082542 -0.013604 0.547000 0 30 49
-0.081487 -0.013579 0.546000 7 37 56
-0.030056 -0.013629 0.548000 106 155 168
-0.100448 -0.013022 0.561000 22 42 53
-0.099165 -0.012975 0.559000 56 89 104
-0.097712 -0.012906 0.556000 92 125 140
-0.096791 -0.012906 0.556000 76 116 127
-0.095698 -0.012882 0.555000 74 114 125
-0.094608 -0.012859 0.554000 70 114 128
-0.093690 -0.012859 0.554000 69 113 127
-0.092438 -0.012813 0.552000 70 114 128
-0.091358 -0.012789 0.551000 70 114 128
-0.090445 -0.012789 0.551000 71 115 129
-0.089371 -0.012766 0.550000 70 114 128
-0.088299 -0.012743 0.549000 70 114 128
-0.087230 -0.012720 0.548000 70 114 128
-0.086323 -0.012720 0.548000 70 114 130
-0.085260 -0.012697 0.547000 69 113 129
-0.084199 -0.012673 0.546000 69 111 128
-0.083295 -0.012673 0.546000 77 119 136
-0.082240 -0.012650 0.545000 0 32 50
-0.081039 -0.012604 0.543000 7 39 57
-0.100627 -0.012113 0.562000 26 40 46
-0.099165 -0.012048 0.559000 4 28 42
-0.097887 -0.012005 0.557000 43 67 81
-0.096965 -0.012005 0.557000 86 121 134
-0.095698 -0.011962 0.555000 79 114 127
-0.094608 -0.011940 0.554000 71 114 126
-0.093690 -0.011940 0.554000 70 113 125
-0.092438 -0.011897 0.552000 70 114 128
-0.091358 -0.011876 0.551000 70 114 128
-0.090445 -0.011876 0.551000 70 114 128
-0.089371 -0.011854 0.550000 70 114 128
-0.088299 -0.011833 0.549000 70 114 130
-0.087230 -0.011811 0.548000 70 114 130
-0.086323 -0.011811 0.548000 70 114 130
-0.085260 -0.011790 0.547000 69 113 129
-0.084199 -0.011768 0.546000 66 110 126
-0.083295 -0.011768 0.546000 75 119 135
-0.082240 -0.011746 0.545000 24 58 78
-0.081039 -0.011703 0.543000 4 38 58
-0.100627 -0.011181 0.562000 24 36 38
-0.099165 -0.011121 0.559000 19 35 43
-0.097887 -0.011081 0.557000 15 31 39
-0.096965 -0.011081 0.557000 23 49 65
-0.095698 -0.011042 0.555000 71 97 113
-0.094608 -0.011022 0.554000 79 122 134
-0.093690 -0.011022 0.554000 70 113 125
-0.092438 -0.010982 0.552000 70 115 126
-0.091358 -0.010962 0.551000 69 114 125
-0.090445 -0.010962 0.551000 70 114 128
-0.089371 -0.010942 0.550000 70 114 128
-0.088138 -0.010902 0.548000 69 113 129
-0.087230 -0.010902 0.548000 70 114 130
-0.086165 -0.010882 0.547000 70 114 130
-0.084948 -0.010843 0.545000 69 113 129
-0.083891 -0.010823 0.544000 68 112 128
-0.082990 -0.010823 0.544000 66 110 126
-0.081938 -0.010803 0.543000 67 104 123
-0.100986 -0.010285 0.564000 22 35 34
-0.099519 -0.010231 0.561000 19 33 37
-0.098063 -0.010176 0.558000 20 34 38
-0.097139 -0.010176 0.558000 12 32 45
-0.095870 -0.010139 0.556000 19 39 52
-0.094608 -0.010103 0.554000 47 85 99
-0.093690 -0.010103 0.554000 86 124 138
-0.092438 -0.010067 0.552000 71 116 127
-0.091358 -0.010048 0.551000 69 114 125
-0.090445 -0.010048 0.551000 70 114 128
-0.089208 -0.010012 0.549000 70 114 128
-0.088138 -0.009994 0.548000 70 114 130
-0.087230 -0.009994 0.548000 69 113 129
-0.086008 -0.009957 0.546000 70 114 130
-0.084792 -0.009921 0.544000 69 113 129
-0.083583 -0.009884 0.542000 69 113 129
-0.082685 -0.009884 0.542000 65 109 125
-0.101344 -0.009383 0.566000 21 33 35
-0.100406 -0.009383 0.566000 19 31 35
-0.098415 -0.009284 0.560000 21 33 37
-0.097487 -0.009284 0.560000 15 31 39
-0.096043 -0.009234 0.557000 15 31 39
-0.094779 -0.009201 0.555000 5 31 47
-0.093859 -0.009201 0.555000 28 54 70
-0.092605 -0.009168 0.553000 79 118 134
-0.091358 -0.009135 0.551000 75 114 130
-0.090445 -0.009135 0.551000 70 115 126
-0.089208 -0.009101 0.549000 71 116 127
-0.087977 -0.009068 0.547000 70 114 128
-0.087071 -0.009068 0.547000 69 113 127
-0.085693 -0.009019 0.544000 70 114 130
-0.084636 -0.009002 0.543000 69 113 129
-0.083583 -0.008985 0.542000 69 113 129
-0.101523 -0.008460 0.567000 20 30 33
-0.100584 -0.008460 0.567000 19 31 35
-0.098590 -0.008370 0.561000 19 31 35
-0.097661 -0.008370 0.561000 15 29 33
-0.096387 -0.008340 0.559000 16 30 34
-0.094949 -0.008295 0.556000 16 34 43
-0.094029 -0.008295 0.556000 12 30 39
-0.092773 -0.008266 0.554000 14 40 58
-0.091358 -0.008221 0.551000 56 82 100
-0.090445 -0.008221 0.551000 74 117 129
-0.089208 -0.008191 0.549000 72 115 127
-0.087977 -0.008161 0.547000 71 116 127
-0.087071 -0.008161 0.547000 69 114 125
-0.085693 -0.008116 0.544000 69 113 127
-0.094029 -0.007373 0.556000 16 30 34
-0.092773 -0.007347 0.554000 18 35 49
-0.091358 -0.007307 0.551000 7 24 38
-0.090445 -0.007307 0.551000 55 88 101
-0.089046 -0.007267 0.548000 90 123 136
-0.087816 -0.007241 0.546000 73 116 126
-0.086912 -0.007241 0.546000 71 114 124
-0.091358 -0.006393 0.551000 20 34 40
