ply
format ascii 1.0
element vertex 1287
property float x
property float y
property float z
property uchar red
property uchar green
property uchar blue
end_header
-0.067447 0.018476 0.557000 10 22 24
-0.066405 0.018443 0.556000 10 22 24
-0.065485 0.018443 0.556000 7 21 23
-0.064448 0.018410 0.555000 7 21 23
-0.063414 0.018377 0.554000 8 22 26
-0.062271 0.018310 0.552000 6 20 24
-0.061357 0.018310 0.552000 10 22 26
-0.060333 0.018277 0.551000 11 23 27
-0.059421 0.018277 0.551000 15 25 32
-0.058508 0.018277 0.551000 18 28 35
-0.057491 0.018244 0.550000 0 21 35
-0.056580 0.018244 0.550000 53 75 89
-0.055670 0.018244 0.550000 89 127 139
-0.054759 0.018244 0.550000 84 122 134
-0.053946 0.018277 0.551000 76 124 134
-0.053033 0.018277 0.551000 77 125 135
-0.052215 0.018310 0.552000 79 118 136
-0.051301 0.018310 0.552000 15 54 72
-0.050570 0.018377 0.554000 10 29 49
-0.049652 0.018377 0.554000 9 28 48
-0.048823 0.018410 0.555000 14 27 36
-0.047904 0.018410 0.555000 13 26 35
-0.046985 0.018410 0.555000 13 23 26
-0.046148 0.018443 0.556000 13 23 26
-0.045228 0.018443 0.556000 11 21 24
-0.044307 0.018443 0.556000 12 22 25
-0.043464 0.018476 0.557000 12 22 25
-0.042542 0.018476 0.557000 12 22 25
-0.041545 0.018443 0.556000 11 21 24
-0.040551 0.018410 0.555000 11 21 24
-0.039632 0.018410 0.555000 11 21 24
-0.038643 0.018377 0.554000 11 21 24
-0.037589 0.018310 0.552000 11 23 25
-0.036675 0.018310 0.552000 11 23 25
-0.035631 0.018244 0.550000 11 23 27
-0.034531 0.018145 0.547000 11 23 27
-0.033564 0.018111 0.546000 12 23 32
-0.032540 0.018045 0.544000 12 23 32
-0.031523 0.017979 0.542000 11 26 39
-0.030512 0.017912 0.540000 8 23 36
-0.029618 0.017912 0.540000 40 73 86
-0.028670 0.017879 0.539000 53 86 99
-0.027675 0.017813 0.537000 50 90 103
-0.026785 0.017813 0.537000 51 91 104
-0.025848 0.017780 0.536000 52 91 107
-0.024960 0.017780 0.536000 52 91 107
-0.024072 0.017780 0.536000 49 93 107
-0.023185 0.017780 0.536000 49 93 107
-0.022297 0.017780 0.536000 46 93 108
-0.021449 0.017813 0.537000 46 93 108
-0.020598 0.017846 0.538000 46 93 108
-0.019707 0.017846 0.538000 48 95 110
-0.018851 0.017879 0.539000 48 95 108
-0.018125 0.018045 0.544000 47 94 107
-0.017351 0.018178 0.548000 49 93 107
-0.016444 0.018178 0.548000 51 95 109
-0.015678 0.018344 0.553000 61 89 104
-0.015056 0.018708 0.564000 23 51 66
-0.014122 0.018708 0.564000 29 40 51
-0.013305 0.018874 0.569000 22 33 44
-0.012362 0.018874 0.569000 22 33 33
-0.100269 0.019504 0.560000 31 44 41
-0.092249 0.018634 0.535000 28 52 62
-0.091022 0.018564 0.533000 29 58 68
-0.089293 0.018390 0.528000 38 67 77
-0.088419 0.018390 0.528000 40 76 86
-0.087544 0.018390 0.528000 48 84 94
-0.086670 0.018390 0.528000 47 85 97
-0.085796 0.018390 0.528000 45 83 95
-0.084921 0.018390 0.528000 41 83 98
-0.084047 0.018390 0.528000 42 84 99
-0.083172 0.018390 0.528000 43 85 100
-0.082454 0.018425 0.529000 44 86 101
-0.081732 0.018460 0.530000 43 85 100
-0.080854 0.018460 0.530000 44 86 101
-0.080128 0.018494 0.531000 15 46 62
-0.079696 0.018599 0.534000 11 42 58
-0.078812 0.018599 0.534000 15 38 57
-0.078219 0.018668 0.536000 14 37 56
-0.077764 0.018773 0.539000 16 39 58
-0.077442 0.018912 0.543000 19 42 61
-0.077107 0.019052 0.547000 22 45 64
-0.076201 0.019052 0.547000 23 46 65
-0.075846 0.019191 0.551000 24 52 67
-0.075341 0.019295 0.554000 27 55 70
-0.074692 0.019365 0.556000 28 62 72
-0.073772 0.019365 0.556000 28 62 72
-0.073113 0.019435 0.558000 25 57 68
-0.072318 0.019470 0.559000 20 52 63
-0.071520 0.019504 0.560000 20 42 52
-0.070593 0.019504 0.560000 15 37 47
-0.069665 0.019504 0.560000 13 30 35
-0.068738 0.019504 0.560000 11 28 33
-0.067568 0.019435 0.558000 7 24 27
-0.066644 0.019435 0.558000 7 24 27
-0.065720 0.019435 0.558000 8 22 26
-0.064564 0.019365 0.556000 8 22 26
-0.063529 0.019330 0.555000 8 22 26
-0.062497 0.019295 0.554000 7 21 25
-0.061579 0.019295 0.554000 9 21 25
-0.060552 0.019261 0.553000 10 22 26
-0.059529 0.019226 0.552000 12 22 27
-0.058614 0.019226 0.552000 15 25 30
-0.057596 0.019191 0.551000 13 26 37
-0.056683 0.019191 0.551000 7 20 31
-0.055771 0.019191 0.551000 19 43 57
-0.054958 0.019226 0.552000 91 115 129
-0.054044 0.019226 0.552000 91 129 143
-0.053226 0.019261 0.553000 84 122 136
-0.052405 0.019295 0.554000 42 72 93
-0.051487 0.019295 0.554000 4 34 55
-0.050661 0.019330 0.555000 12 29 45
-0.049831 0.019365 0.556000 11 28 44
-0.048911 0.019365 0.556000 13 27 33
-0.047990 0.019365 0.556000 12 26 32
-0.047154 0.019400 0.557000 12 24 26
-0.046231 0.019400 0.557000 11 23 25
-0.045309 0.019400 0.557000 12 22 25
-0.044466 0.019435 0.558000 13 23 26
-0.043542 0.019435 0.558000 13 23 26
-0.042618 0.019435 0.558000 13 23 26
-0.041694 0.019435 0.558000 10 24 28
-0.040624 0.019365 0.556000 9 23 27
-0.039703 0.019365 0.556000 9 23 27
-0.038712 0.019330 0.555000 10 24 28
-0.037725 0.019295 0.554000 11 23 27
-0.036675 0.019226 0.552000 12 24 28
-0.035696 0.019191 0.551000 12 24 30
-0.034594 0.019086 0.548000 12 24 30
-0.033564 0.019017 0.546000 12 23 32
-0.032659 0.019017 0.546000 12 23 32
-0.031581 0.018912 0.543000 11 27 37
-0.030568 0.018843 0.541000 12 28 38
-0.029673 0.018843 0.541000 27 58 72
-0.028670 0.018773 0.539000 56 87 101
-0.027726 0.018738 0.538000 50 89 105
-0.026835 0.018738 0.538000 51 90 106
-0.025896 0.018703 0.537000 52 91 107
-0.025007 0.018703 0.537000 51 90 106
-0.024117 0.018703 0.537000 50 92 107
-0.023228 0.018703 0.537000 49 91 106
-0.022339 0.018703 0.537000 47 91 105
-0.021489 0.018738 0.538000 48 92 106
-0.020637 0.018773 0.539000 48 92 106
-0.019744 0.018773 0.539000 49 93 107
-0.018921 0.018843 0.541000 49 93 107
-0.018192 0.019017 0.546000 48 92 106
-0.100269 0.020433 0.560000 33 46 45
-0.091022 0.019448 0.533000 34 68 76
-0.089293 0.019265 0.528000 44 78 86
-0.088419 0.019265 0.528000 45 84 91
-0.087544 0.019265 0.528000 47 86 93
-0.086670 0.019265 0.528000 46 86 97
-0.085796 0.019265 0.528000 44 84 95
-0.084921 0.019265 0.528000 41 83 98
-0.084047 0.019265 0.528000 42 84 99
-0.083172 0.019265 0.528000 42 84 99
-0.082454 0.019302 0.529000 44 86 101
-0.081732 0.019338 0.530000 43 86 98
-0.080854 0.019338 0.530000 45 88 100
-0.080278 0.019411 0.532000 15 43 60
-0.079696 0.019484 0.534000 12 40 57
-0.078812 0.019484 0.534000 17 38 57
-0.078365 0.019594 0.537000 16 37 56
-0.077909 0.019703 0.540000 16 39 58
-0.077585 0.019849 0.544000 20 43 62
-0.077107 0.019959 0.547000 22 45 64
-0.076201 0.019959 0.547000 25 48 67
-0.075846 0.020105 0.551000 24 55 69
-0.075341 0.020214 0.554000 28 59 73
-0.074692 0.020287 0.556000 28 63 76
-0.073772 0.020287 0.556000 31 66 79
-0.073113 0.020360 0.558000 32 67 80
-0.072318 0.020397 0.559000 28 63 76
-0.071520 0.020433 0.560000 25 54 66
-0.070593 0.020433 0.560000 19 48 60
-0.069665 0.020433 0.560000 20 44 54
-0.068738 0.020433 0.560000 15 39 49
-0.067811 0.020433 0.560000 17 38 44
-0.066764 0.020397 0.559000 7 28 34
-0.065720 0.020360 0.558000 8 24 32
-0.064796 0.020360 0.558000 6 22 30
-0.063758 0.020324 0.557000 6 23 28
-0.062609 0.020251 0.555000 5 22 27
-0.061690 0.020251 0.555000 10 22 26
-0.060662 0.020214 0.554000 10 22 26
-0.059744 0.020214 0.554000 13 20 26
-0.058827 0.020214 0.554000 14 21 27
-0.057805 0.020178 0.553000 12 24 30
-0.056889 0.020178 0.553000 14 26 32
-0.055973 0.020178 0.553000 9 21 37
-0.055057 0.020178 0.553000 16 28 44
-0.054142 0.020178 0.553000 59 78 96
-0.053322 0.020214 0.554000 49 68 86
-0.052499 0.020251 0.555000 7 23 42
-0.051580 0.020251 0.555000 14 30 49
-0.050752 0.020287 0.556000 13 25 39
-0.049921 0.020324 0.557000 13 25 39
-0.048999 0.020324 0.557000 13 27 33
-0.048076 0.020324 0.557000 13 27 33
-0.047238 0.020360 0.558000 13 27 31
-0.046397 0.020397 0.559000 12 26 30
-0.045472 0.020397 0.559000 12 24 28
-0.044546 0.020397 0.559000 14 26 30
-0.043620 0.020397 0.559000 14 26 30
-0.042694 0.020397 0.559000 14 26 30
-0.041694 0.020360 0.558000 10 27 32
-0.040697 0.020324 0.557000 10 27 32
-0.039774 0.020324 0.557000 10 27 32
-0.038782 0.020287 0.556000 10 27 32
-0.037793 0.020251 0.555000 10 27 32
-0.036675 0.020141 0.552000 10 27 32
-0.035761 0.020141 0.552000 12 26 32
-0.034657 0.020032 0.549000 12 26 32
-0.033625 0.019959 0.547000 12 25 34
-0.032719 0.019959 0.547000 10 23 32
-0.031639 0.019849 0.544000 11 27 37
-0.030625 0.019776 0.542000 14 30 40
-0.029727 0.019776 0.542000 21 52 66
-0.028777 0.019740 0.541000 58 89 103
-0.027778 0.019667 0.539000 50 89 105
-0.026885 0.019667 0.539000 51 90 106
-0.025944 0.019630 0.538000 52 91 107
-0.025007 0.019594 0.537000 51 90 106
-0.024117 0.019594 0.537000 50 92 107
-0.023228 0.019594 0.537000 49 91 106
-0.022380 0.019630 0.538000 48 90 105
-0.021529 0.019667 0.539000 49 91 106
-0.020713 0.019740 0.541000 47 91 105
-0.019817 0.019740 0.541000 47 91 105
-0.100090 0.021324 0.559000 32 45 44
-0.093309 0.020446 0.536000 27 54 63
-0.092422 0.020446 0.536000 39 66 75
-0.090680 0.020255 0.531000 41 77 87
-0.089293 0.020141 0.528000 47 83 93
-0.088419 0.020141 0.528000 46 87 93
-0.087544 0.020141 0.528000 47 88 94
-0.086670 0.020141 0.528000 45 86 94
-0.085796 0.020141 0.528000 44 85 93
-0.084921 0.020141 0.528000 43 82 98
-0.084047 0.020141 0.528000 44 83 99
-0.083172 0.020141 0.528000 43 85 100
-0.082454 0.020179 0.529000 44 86 101
-0.081732 0.020217 0.530000 43 86 98
-0.080854 0.020217 0.530000 45 88 100
-0.080278 0.020294 0.532000 10 38 55
-0.079696 0.020370 0.534000 12 40 57
-0.078812 0.020370 0.534000 17 38 57
-0.078365 0.020484 0.537000 16 37 56
-0.077909 0.020599 0.540000 16 39 58
-0.077442 0.020713 0.543000 20 43 62
-0.077107 0.020866 0.547000 21 47 65
-0.076201 0.020866 0.547000 25 51 69
-0.075708 0.020980 0.550000 27 58 74
-0.075205 0.021095 0.553000 29 60 76
-0.074558 0.021171 0.555000 31 66 79
-0.073639 0.021171 0.555000 33 68 81
-0.072851 0.021209 0.556000 32 70 84
-0.072189 0.021285 0.558000 32 70 84
-0.071392 0.021324 0.559000 31 64 79
-0.070467 0.021324 0.559000 28 61 76
-0.069541 0.021324 0.559000 29 61 70
-0.068738 0.021362 0.560000 23 55 64
-0.067689 0.021324 0.559000 26 53 62
-0.066764 0.021324 0.559000 26 53 62
-0.065720 0.021285 0.558000 24 51 60
-0.064796 0.021285 0.558000 13 40 49
-0.063758 0.021247 0.557000 7 34 43
-0.062609 0.021171 0.555000 2 29 38
-0.061690 0.021171 0.555000 4 27 34
-0.060662 0.021133 0.554000 0 20 27
-0.059744 0.021133 0.554000 4 20 30
-0.058827 0.021133 0.554000 5 21 31
-0.057805 0.021095 0.553000 7 20 31
-0.056889 0.021095 0.553000 10 23 34
-0.055973 0.021095 0.553000 12 24 38
-0.055057 0.021095 0.553000 17 29 43
-0.054142 0.021095 0.553000 19 31 47
-0.053322 0.021133 0.554000 19 31 47
-0.052499 0.021171 0.555000 15 30 47
-0.051580 0.021171 0.555000 14 29 46
-0.050752 0.021209 0.556000 12 28 38
-0.049921 0.021247 0.557000 14 30 40
-0.048999 0.021247 0.557000 14 30 38
-0.048076 0.021247 0.557000 14 30 38
-0.047238 0.021285 0.558000 13 30 35
-0.046397 0.021324 0.559000 13 30 35
-0.045472 0.021324 0.559000 13 27 33
-0.044546 0.021324 0.559000 13 27 33
-0.043620 0.021324 0.559000 12 26 32
-0.042694 0.021324 0.559000 13 27 33
-0.041694 0.021285 0.558000 10 28 35
-0.040697 0.021247 0.557000 10 28 35
-0.039774 0.021247 0.557000 10 28 35
-0.038782 0.021209 0.556000 10 28 35
-0.037793 0.021171 0.555000 10 26 34
-0.036675 0.021057 0.552000 11 27 35
-0.035761 0.021057 0.552000 11 28 33
-0.034657 0.020942 0.549000 11 28 33
-0.033625 0.020866 0.547000 12 25 34
-0.032719 0.020866 0.547000 12 25 34
-0.031639 0.020751 0.544000 11 27 37
-0.030625 0.020675 0.542000 13 29 39
-0.029727 0.020675 0.542000 21 52 66
-0.028777 0.020637 0.541000 58 89 103
-0.027778 0.020561 0.539000 50 89 105
-0.026885 0.020561 0.539000 51 90 106
-0.025944 0.020522 0.538000 52 91 107
-0.025007 0.020484 0.537000 52 91 107
-0.024117 0.020484 0.537000 53 92 108
-0.023228 0.020484 0.537000 51 90 106
-0.022380 0.020522 0.538000 48 90 105
-0.021529 0.020561 0.539000 48 90 105
-0.020713 0.020637 0.541000 45 89 103
-0.099553 0.022131 0.556000 37 50 49
-0.093309 0.021335 0.536000 37 69 78
-0.092422 0.021335 0.536000 43 75 84
-0.090680 0.021136 0.531000 43 82 91
-0.089293 0.021017 0.528000 45 84 93
-0.088419 0.021017 0.528000 46 86 97
-0.087544 0.021017 0.528000 46 86 97
-0.086670 0.021017 0.528000 45 85 96
-0.085796 0.021017 0.528000 44 84 95
-0.084921 0.021017 0.528000 43 82 98
-0.084047 0.021017 0.528000 44 83 99
-0.083330 0.021056 0.529000 45 84 100
-0.082454 0.021056 0.529000 46 85 101
-0.081886 0.021136 0.531000 45 85 98
-0.081007 0.021136 0.531000 45 85 98
-0.080429 0.021216 0.533000 11 39 56
-0.079845 0.021295 0.535000 12 40 57
-0.078959 0.021295 0.535000 17 38 57
-0.078365 0.021375 0.537000 17 38 57
-0.077909 0.021494 0.540000 18 41 60
-0.077300 0.021574 0.542000 22 45 64
-0.076402 0.021574 0.542000 23 49 67
-0.075922 0.021693 0.545000 26 52 70
-0.075433 0.021813 0.548000 29 60 76
-0.074933 0.021932 0.551000 30 61 77
-0.074289 0.022012 0.553000 32 70 84
-0.073374 0.022012 0.553000 34 72 86
-0.072720 0.022091 0.555000 36 75 91
-0.071930 0.022131 0.556000 35 74 90
-0.071137 0.022171 0.557000 34 71 88
-0.070215 0.022171 0.557000 30 67 84
-0.069417 0.022211 0.558000 29 64 77
-0.068492 0.022211 0.558000 27 62 75
-0.067568 0.022211 0.558000 28 61 74
-0.066644 0.022211 0.558000 27 60 73
-0.065720 0.022211 0.558000 27 60 73
-0.064796 0.022211 0.558000 30 63 76
-0.063758 0.022171 0.557000 28 63 76
-0.062722 0.022131 0.556000 32 67 80
-0.061802 0.022131 0.556000 43 78 91
-0.060771 0.022091 0.555000 46 81 94
-0.059852 0.022091 0.555000 34 65 79
-0.058933 0.022091 0.555000 30 61 75
-0.057909 0.022052 0.554000 23 47 61
-0.056992 0.022052 0.554000 8 32 46
-0.056074 0.022052 0.554000 11 28 42
-0.055157 0.022052 0.554000 16 33 47
-0.054240 0.022052 0.554000 20 35 50
-0.053418 0.022091 0.555000 22 37 52
-0.052594 0.022131 0.556000 24 41 53
-0.051673 0.022131 0.556000 23 40 52
-0.050844 0.022171 0.557000 20 37 49
-0.050011 0.022211 0.558000 19 36 48
-0.049087 0.022211 0.558000 17 35 42
-0.048163 0.022211 0.558000 17 35 42
-0.047323 0.022251 0.559000 14 32 39
-0.046397 0.022251 0.559000 14 32 39
-0.045472 0.022251 0.559000 12 30 37
-0.044466 0.022211 0.558000 10 28 35
-0.043542 0.022211 0.558000 12 28 36
-0.042618 0.022211 0.558000 14 30 38
-0.041619 0.022171 0.557000 12 30 37
-0.040624 0.022131 0.556000 12 30 37
-0.039703 0.022131 0.556000 11 29 38
-0.038712 0.022091 0.555000 11 29 38
-0.037725 0.022052 0.554000 10 28 35
-0.036675 0.021972 0.552000 11 29 36
-0.035696 0.021932 0.551000 11 29 36
-0.034657 0.021853 0.549000 11 29 36
-0.033687 0.021813 0.548000 11 27 35
-0.032779 0.021813 0.548000 11 27 35
-0.031697 0.021693 0.545000 11 29 38
-0.030681 0.021614 0.543000 12 30 39
-0.029782 0.021614 0.543000 20 51 65
-0.028777 0.021534 0.541000 57 88 102
-0.027829 0.021494 0.540000 50 89 105
-0.026935 0.021494 0.540000 50 89 105
-0.025992 0.021454 0.539000 52 91 107
-0.025100 0.021454 0.539000 52 91 107
-0.024207 0.021454 0.539000 53 92 108
-0.023315 0.021454 0.539000 51 90 106
-0.022422 0.021454 0.539000 51 90 106
-0.021609 0.021534 0.541000 50 89 105
-0.099553 0.023053 0.556000 37 50 49
-0.092961 0.022141 0.534000 43 77 87
-0.092077 0.022141 0.534000 45 79 89
-0.090680 0.022017 0.531000 44 82 94
-0.089293 0.021892 0.528000 46 84 96
-0.088419 0.021892 0.528000 45 85 96
-0.087544 0.021892 0.528000 45 85 96
-0.086670 0.021892 0.528000 45 85 96
-0.085796 0.021892 0.528000 44 84 95
-0.084921 0.021892 0.528000 44 84 97
-0.084047 0.021892 0.528000 44 84 97
-0.083330 0.021934 0.529000 44 84 97
-0.082454 0.021934 0.529000 45 85 98
-0.081886 0.022017 0.531000 45 85 98
-0.081007 0.022017 0.531000 46 86 99
-0.080429 0.022100 0.533000 10 37 57
-0.079696 0.022141 0.534000 12 39 59
-0.078812 0.022141 0.534000 15 38 57
-0.078219 0.022224 0.536000 15 38 57
-0.077764 0.022348 0.539000 19 42 61
-0.077157 0.022431 0.541000 22 45 64
-0.076261 0.022431 0.541000 25 48 67
-0.075644 0.022514 0.543000 29 52 71
-0.075157 0.022639 0.546000 29 60 76
-0.074661 0.022763 0.549000 31 62 78
-0.074021 0.022846 0.551000 33 71 85
-0.073108 0.022846 0.551000 37 75 89
-0.072327 0.022887 0.552000 37 76 92
-0.071671 0.022970 0.554000 38 77 93
-0.070754 0.022970 0.554000 37 76 94
-0.069962 0.023012 0.555000 33 72 90
-0.069043 0.023012 0.555000 31 68 85
-0.068247 0.023053 0.556000 30 67 84
-0.067326 0.023053 0.556000 27 65 79
-0.066405 0.023053 0.556000 29 67 81
-0.065485 0.023053 0.556000 29 67 81
-0.064564 0.023053 0.556000 32 70 84
-0.063643 0.023053 0.556000 30 68 82
-0.062722 0.023053 0.556000 32 70 84
-0.061802 0.023053 0.556000 40 77 94
-0.060771 0.023012 0.555000 44 81 98
-0.059852 0.023012 0.555000 42 77 92
-0.058933 0.023012 0.555000 46 81 96
-0.058014 0.023012 0.555000 38 69 83
-0.057095 0.023012 0.555000 27 58 72
-0.056176 0.023012 0.555000 21 45 59
-0.055257 0.023012 0.555000 18 42 56
-0.054337 0.023012 0.555000 24 46 58
-0.053515 0.023053 0.556000 27 49 61
-0.052594 0.023053 0.556000 25 49 59
-0.051673 0.023053 0.556000 22 46 56
-0.050844 0.023095 0.557000 19 43 53
-0.050011 0.023136 0.558000 15 39 49
-0.049087 0.023136 0.558000 18 39 47
-0.048163 0.023136 0.558000 16 37 45
-0.047238 0.023136 0.558000 15 36 42
-0.046314 0.023136 0.558000 12 33 39
-0.045390 0.023136 0.558000 11 32 38
-0.044387 0.023095 0.557000 10 31 37
-0.043386 0.023053 0.556000 11 32 40
-0.042465 0.023053 0.556000 12 33 41
-0.041545 0.023053 0.556000 11 32 40
-0.040551 0.023012 0.555000 12 33 41
-0.039632 0.023012 0.555000 11 32 40
-0.038643 0.022970 0.554000 10 31 39
-0.037657 0.022929 0.553000 11 29 38
-0.036741 0.022929 0.553000 12 30 39
-0.035696 0.022846 0.551000 12 30 37
-0.034657 0.022763 0.549000 12 30 37
-0.033687 0.022721 0.548000 12 30 37
-0.032779 0.022721 0.548000 12 30 37
-0.031697 0.022597 0.545000 12 30 37
-0.030738 0.022556 0.544000 13 31 38
-0.029837 0.022556 0.544000 27 58 72
-0.028830 0.022473 0.542000 52 83 97
-0.027881 0.022431 0.541000 50 89 105
-0.026985 0.022431 0.541000 50 89 105
-0.026041 0.022390 0.540000 51 90 106
-0.025146 0.022390 0.540000 52 91 107
-0.024252 0.022390 0.540000 53 92 108
-0.023401 0.022431 0.541000 52 91 107
-0.022505 0.022431 0.541000 52 91 107
-0.092961 0.023027 0.534000 43 79 89
-0.092077 0.023027 0.534000 47 83 93
-0.090680 0.022897 0.531000 44 84 97
-0.089293 0.022768 0.528000 44 84 97
-0.088419 0.022768 0.528000 43 86 96
-0.087544 0.022768 0.528000 44 87 97
-0.086670 0.022768 0.528000 43 86 96
-0.085958 0.022811 0.529000 42 85 95
-0.085082 0.022811 0.529000 42 85 97
-0.084206 0.022811 0.529000 41 84 96
-0.083330 0.022811 0.529000 42 85 97
-0.082610 0.022854 0.530000 43 86 98
-0.081886 0.022897 0.531000 44 84 97
-0.081007 0.022897 0.531000 45 85 98
-0.080429 0.022983 0.533000 13 43 62
-0.079696 0.023027 0.534000 10 40 59
-0.078812 0.023027 0.534000 14 40 58
-0.078219 0.023113 0.536000 14 40 58
-0.077764 0.023242 0.539000 20 43 62
-0.077157 0.023328 0.541000 22 45 64
-0.076261 0.023328 0.541000 26 49 68
-0.075644 0.023415 0.543000 30 53 72
-0.075157 0.023544 0.546000 30 61 77
-0.074661 0.023673 0.549000 32 63 79
-0.074021 0.023760 0.551000 34 72 86
-0.073108 0.023760 0.551000 38 76 90
-0.072327 0.023803 0.552000 39 78 94
-0.071671 0.023889 0.554000 40 79 95
-0.070754 0.023889 0.554000 42 81 99
-0.069962 0.023932 0.555000 37 76 94
-0.069043 0.023932 0.555000 35 74 92
-0.068247 0.023975 0.556000 33 72 90
-0.067326 0.023975 0.556000 29 68 84
-0.066405 0.023975 0.556000 32 71 87
-0.065485 0.023975 0.556000 33 72 88
-0.064564 0.023975 0.556000 35 74 90
-0.063643 0.023975 0.556000 29 71 88
-0.062722 0.023975 0.556000 34 76 93
-0.061802 0.023975 0.556000 45 82 101
-0.060771 0.023932 0.555000 47 84 103
-0.059852 0.023932 0.555000 46 84 98
-0.058933 0.023932 0.555000 45 83 97
-0.058014 0.023932 0.555000 43 76 91
-0.057095 0.023932 0.555000 37 70 85
-0.056277 0.023975 0.556000 28 59 75
-0.055356 0.023975 0.556000 24 55 71
-0.054435 0.023975 0.556000 29 58 68
-0.053611 0.024018 0.557000 29 58 68
-0.052688 0.024018 0.557000 25 54 62
-0.051766 0.024018 0.557000 23 52 60
-0.050935 0.024061 0.558000 19 46 55
-0.050011 0.024061 0.558000 16 43 52
-0.049087 0.024061 0.558000 18 41 48
-0.048163 0.024061 0.558000 17 40 47
-0.047238 0.024061 0.558000 15 38 45
-0.046314 0.024061 0.558000 13 36 43
-0.045390 0.024061 0.558000 11 34 41
-0.044387 0.024018 0.557000 10 33 40
-0.043386 0.023975 0.556000 11 34 41
-0.042465 0.023975 0.556000 13 36 43
-0.041545 0.023975 0.556000 11 33 43
-0.040551 0.023932 0.555000 11 33 43
-0.039632 0.023932 0.555000 12 32 43
-0.038643 0.023889 0.554000 11 31 42
-0.037657 0.023846 0.553000 13 31 40
-0.036741 0.023846 0.553000 13 31 40
-0.035696 0.023760 0.551000 13 31 38
-0.034657 0.023673 0.549000 13 31 38
-0.033687 0.023630 0.548000 13 31 38
-0.032779 0.023630 0.548000 13 31 38
-0.031697 0.023501 0.545000 13 31 38
-0.030738 0.023458 0.544000 10 28 35
-0.029837 0.023458 0.544000 41 74 87
-0.028883 0.023415 0.543000 51 84 97
-0.027932 0.023371 0.542000 50 89 105
-0.027035 0.023371 0.542000 50 89 105
-0.026089 0.023328 0.541000 51 90 106
-0.025193 0.023328 0.541000 52 91 107
-0.024342 0.023371 0.542000 52 91 107
-0.023488 0.023415 0.543000 52 91 107
-0.094724 0.024136 0.539000 47 81 91
-0.092961 0.023912 0.534000 43 82 91
-0.092077 0.023912 0.534000 45 84 93
-0.090680 0.023778 0.531000 44 84 95
-0.089293 0.023643 0.528000 44 84 95
-0.088419 0.023643 0.528000 43 86 96
-0.087544 0.023643 0.528000 43 86 96
-0.086670 0.023643 0.528000 43 86 96
-0.085958 0.023688 0.529000 43 86 96
-0.085082 0.023688 0.529000 42 85 97
-0.084206 0.023688 0.529000 42 85 97
-0.083330 0.023688 0.529000 43 86 98
-0.082610 0.023733 0.530000 42 85 97
-0.081886 0.023778 0.531000 44 84 97
-0.081007 0.023778 0.531000 43 83 96
-0.080429 0.023867 0.533000 33 65 83
-0.079696 0.023912 0.534000 8 40 58
-0.078812 0.023912 0.534000 13 41 58
-0.078219 0.024002 0.536000 15 43 60
-0.077620 0.024091 0.538000 18 44 62
-0.077014 0.024181 0.540000 21 47 65
-0.076120 0.024181 0.540000 26 52 68
-0.075644 0.024315 0.543000 30 56 72
-0.075020 0.024405 0.545000 31 62 76
-0.074525 0.024539 0.548000 34 65 79
-0.073618 0.024539 0.548000 36 71 86
-0.072843 0.024584 0.549000 41 76 91
-0.072196 0.024673 0.551000 40 77 94
-0.071413 0.024718 0.552000 43 80 97
-0.070498 0.024718 0.552000 43 82 98
-0.069710 0.024763 0.553000 40 79 95
-0.068919 0.024808 0.554000 39 78 94
-0.068124 0.024852 0.555000 38 77 93
-0.067205 0.024852 0.555000 36 75 91
-0.066286 0.024852 0.555000 36 75 91
-0.065367 0.024852 0.555000 35 77 92
-0.064448 0.024852 0.555000 35 77 92
-0.063529 0.024852 0.555000 33 75 92
-0.062609 0.024852 0.555000 38 80 97
-0.061690 0.024852 0.555000 43 85 102
-0.060771 0.024852 0.555000 46 88 105
-0.059852 0.024852 0.555000 48 87 103
-0.058933 0.024852 0.555000 47 86 102
-0.058014 0.024852 0.555000 47 82 97
-0.057095 0.024852 0.555000 39 74 89
-0.056277 0.024897 0.556000 36 69 84
-0.055356 0.024897 0.556000 33 66 81
-0.054435 0.024897 0.556000 30 63 76
-0.053611 0.024942 0.557000 29 62 75
-0.052688 0.024942 0.557000 25 57 66
-0.051766 0.024942 0.557000 22 54 63
-0.050935 0.024987 0.558000 19 48 58
-0.050011 0.024987 0.558000 17 46 56
-0.049087 0.024987 0.558000 18 43 50
-0.048076 0.024942 0.557000 16 41 48
-0.047154 0.024942 0.557000 14 39 46
-0.046231 0.024942 0.557000 13 38 45
-0.045228 0.024897 0.556000 12 36 46
-0.044227 0.024852 0.555000 11 35 45
-0.043308 0.024852 0.555000 12 36 46
-0.042389 0.024852 0.555000 12 36 46
-0.041470 0.024852 0.555000 11 35 45
-0.040478 0.024808 0.554000 12 36 46
-0.039560 0.024808 0.554000 13 35 45
-0.038573 0.024763 0.553000 13 35 45
-0.037521 0.024673 0.551000 12 33 41
-0.036608 0.024673 0.551000 12 33 41
-0.035631 0.024629 0.550000 12 33 39
-0.034594 0.024539 0.548000 12 33 39
-0.033625 0.024494 0.547000 12 33 39
-0.032719 0.024494 0.547000 12 33 39
-0.031697 0.024405 0.545000 14 35 43
-0.030738 0.024360 0.544000 8 29 37
-0.029837 0.024360 0.544000 55 91 101
-0.028883 0.024315 0.543000 50 86 96
-0.027932 0.024270 0.542000 50 90 103
-0.027035 0.024270 0.542000 50 90 103
-0.026089 0.024225 0.541000 51 90 106
-0.025193 0.024225 0.541000 51 90 106
-0.024342 0.024270 0.542000 51 90 106
-0.094724 0.025030 0.539000 49 83 91
-0.092961 0.024798 0.534000 44 83 92
-0.092077 0.024798 0.534000 44 83 92
-0.090680 0.024658 0.531000 44 84 95
-0.089462 0.024565 0.529000 44 84 95
-0.088586 0.024565 0.529000 43 86 96
-0.087710 0.024565 0.529000 43 86 96
-0.086834 0.024565 0.529000 43 86 96
-0.085958 0.024565 0.529000 43 86 96
-0.085082 0.024565 0.529000 45 85 96
-0.084206 0.024565 0.529000 45 85 96
-0.083488 0.024612 0.530000 45 85 98
-0.082610 0.024612 0.530000 44 84 97
-0.081886 0.024658 0.531000 44 84 97
-0.081007 0.024658 0.531000 42 82 95
-0.080429 0.024751 0.533000 41 76 91
-0.079696 0.024798 0.534000 6 41 56
-0.078812 0.024798 0.534000 11 42 58
-0.078219 0.024890 0.536000 13 44 60
-0.077620 0.024983 0.538000 18 46 63
-0.077014 0.025076 0.540000 20 48 65
-0.076120 0.025076 0.540000 26 54 69
-0.075365 0.025123 0.541000 30 58 73
-0.074882 0.025262 0.544000 30 63 76
-0.074253 0.025355 0.546000 34 67 80
-0.073349 0.025355 0.546000 38 73 88
-0.072710 0.025448 0.548000 41 76 91
-0.071934 0.025494 0.549000 41 79 93
-0.071283 0.025587 0.551000 44 82 96
-0.070371 0.025587 0.551000 45 83 97
-0.069458 0.025587 0.551000 44 82 96
-0.068670 0.025633 0.552000 41 78 95
-0.067879 0.025680 0.553000 41 78 95
-0.066963 0.025680 0.553000 39 78 94
-0.066047 0.025680 0.553000 37 76 92
-0.065249 0.025726 0.554000 37 79 94
-0.064332 0.025726 0.554000 37 79 94
-0.063414 0.025726 0.554000 35 77 94
-0.062497 0.025726 0.554000 41 83 100
-0.061690 0.025773 0.555000 46 88 103
-0.060771 0.025773 0.555000 50 92 107
-0.059852 0.025773 0.555000 50 89 105
-0.058933 0.025773 0.555000 50 89 105
-0.058014 0.025773 0.555000 49 84 99
-0.057198 0.025819 0.556000 42 77 92
-0.056277 0.025819 0.556000 41 74 89
-0.055456 0.025866 0.557000 37 70 85
-0.054533 0.025866 0.557000 33 66 79
-0.053611 0.025866 0.557000 29 62 75
-0.052688 0.025866 0.557000 28 60 71
-0.051766 0.025866 0.557000 23 55 66
-0.050935 0.025912 0.558000 19 48 60
-0.049921 0.025866 0.557000 19 48 60
-0.048999 0.025866 0.557000 17 44 53
-0.047990 0.025819 0.556000 16 43 52
-0.047069 0.025819 0.556000 15 39 49
-0.046148 0.025819 0.556000 14 38 48
-0.045146 0.025773 0.555000 14 38 50
-0.044147 0.025726 0.554000 14 38 50
-0.043230 0.025726 0.554000 13 37 49
-0.042313 0.025726 0.554000 12 36 48
-0.041320 0.025680 0.553000 12 36 48
-0.040332 0.025633 0.552000 13 37 49
-0.039417 0.025633 0.552000 14 36 46
-0.038433 0.025587 0.551000 13 35 45
-0.037453 0.025541 0.550000 14 35 43
-0.036542 0.025541 0.550000 14 35 43
-0.035566 0.025494 0.549000 14 35 43
-0.034594 0.025448 0.548000 14 35 43
-0.033625 0.025401 0.547000 15 36 44
-0.032719 0.025401 0.547000 15 36 44
-0.031697 0.025308 0.545000 13 35 45
-0.030738 0.025262 0.544000 32 54 64
-0.029837 0.025262 0.544000 58 97 106
-0.028883 0.025216 0.543000 51 90 99
-0.027984 0.025216 0.543000 50 90 103
-0.027085 0.025216 0.543000 51 91 104
-0.026137 0.025169 0.542000 51 90 106
-0.025239 0.025169 0.542000 51 90 106
-0.094900 0.025972 0.540000 54 83 91
-0.093309 0.025779 0.536000 45 84 93
-0.092422 0.025779 0.536000 44 83 92
-0.091022 0.025635 0.533000 44 82 94
-0.089801 0.025539 0.531000 45 83 95
-0.088754 0.025491 0.530000 43 86 98
-0.087876 0.025491 0.530000 43 86 98
-0.086998 0.025491 0.530000 44 87 99
-0.086121 0.025491 0.530000 43 86 98
-0.085243 0.025491 0.530000 46 86 99
-0.084365 0.025491 0.530000 45 85 98
-0.083488 0.025491 0.530000 45 85 98
-0.082766 0.025539 0.531000 45 85 98
-0.082041 0.025587 0.532000 44 84 97
-0.081159 0.025587 0.532000 43 83 96
-0.080429 0.025635 0.533000 40 78 92
-0.079696 0.025683 0.534000 5 43 57
-0.078812 0.025683 0.534000 13 43 62
-0.078219 0.025779 0.536000 13 43 62
-0.077620 0.025875 0.538000 18 46 63
-0.077014 0.025972 0.540000 22 50 67
-0.076120 0.025972 0.540000 27 55 70
-0.075365 0.026020 0.541000 31 59 74
-0.074882 0.026164 0.544000 29 64 77
-0.074253 0.026260 0.546000 33 68 81
-0.073349 0.026260 0.546000 38 73 86
-0.072710 0.026356 0.548000 42 77 90
-0.071934 0.026405 0.549000 45 80 95
-0.071283 0.026501 0.551000 47 82 97
-0.070371 0.026501 0.551000 48 83 98
-0.069458 0.026501 0.551000 47 82 97
-0.068670 0.026549 0.552000 44 82 96
-0.067879 0.026597 0.553000 43 81 95
-0.066963 0.026597 0.553000 40 79 95
-0.066047 0.026597 0.553000 39 78 94
-0.065249 0.026645 0.554000 37 79 94
-0.064332 0.026645 0.554000 38 80 95
-0.063414 0.026645 0.554000 37 79 94
-0.062497 0.026645 0.554000 42 84 99
-0.061690 0.026693 0.555000 48 90 105
-0.060771 0.026693 0.555000 50 92 107
-0.059852 0.026693 0.555000 52 92 105
-0.058933 0.026693 0.555000 51 91 104
-0.058014 0.026693 0.555000 50 85 100
-0.057198 0.026741 0.556000 45 80 95
-0.056277 0.026741 0.556000 41 76 91
-0.055456 0.026789 0.557000 38 73 88
-0.054533 0.026789 0.557000 33 68 81
-0.053611 0.026789 0.557000 28 63 76
-0.052783 0.026837 0.558000 28 62 72
-0.051859 0.026837 0.558000 22 56 66
-0.050935 0.026837 0.558000 21 48 61
-0.049921 0.026789 0.557000 21 48 61
-0.048999 0.026789 0.557000 18 45 56
-0.047990 0.026741 0.556000 17 44 55
-0.047069 0.026741 0.556000 18 42 54
-0.046148 0.026741 0.556000 15 39 51
-0.045146 0.026693 0.555000 15 39 53
-0.044147 0.026645 0.554000 15 39 53
-0.043230 0.026645 0.554000 14 38 52
-0.042313 0.026645 0.554000 14 38 52
-0.041320 0.026597 0.553000 13 37 49
-0.040332 0.026549 0.552000 13 37 49
-0.039417 0.026549 0.552000 13 37 49
-0.038433 0.026501 0.551000 12 36 48
-0.037453 0.026453 0.550000 14 35 43
-0.036542 0.026453 0.550000 15 36 44
-0.035566 0.026405 0.549000 15 36 44
-0.034594 0.026356 0.548000 16 37 45
-0.033625 0.026308 0.547000 16 37 45
-0.032719 0.026308 0.547000 16 37 45
-0.031755 0.026260 0.546000 9 33 45
-0.030738 0.026164 0.544000 44 68 80
-0.029837 0.026164 0.544000 49 88 97
-0.028936 0.026164 0.544000 51 90 99
-0.028035 0.026164 0.544000 50 90 103
-0.027134 0.026164 0.544000 50 90 103
-0.026233 0.026164 0.544000 50 89 105
-0.089801 0.026419 0.531000 44 84 95
-0.088754 0.026370 0.530000 44 84 97
-0.087876 0.026370 0.530000 44 84 97
-0.086998 0.026370 0.530000 43 86 98
-0.086121 0.026370 0.530000 43 86 98
-0.085243 0.026370 0.530000 46 86 99
-0.084365 0.026370 0.530000 45 85 98
-0.083488 0.026370 0.530000 45 85 98
-0.082766 0.026419 0.531000 45 85 98
-0.082041 0.026469 0.532000 44 84 97
-0.081159 0.026469 0.532000 44 84 97
-0.080429 0.026519 0.533000 41 79 93
-0.079696 0.026569 0.534000 30 68 82
-0.078812 0.026569 0.534000 13 45 65
-0.078073 0.026618 0.535000 14 46 66
-0.077476 0.026718 0.537000 20 47 67
-0.076872 0.026817 0.539000 23 50 70
-0.075979 0.026817 0.539000 29 57 74
-0.075365 0.026917 0.541000 32 60 77
-0.074744 0.027016 0.543000 29 64 79
-0.074117 0.027116 0.545000 34 69 84
-0.073215 0.027116 0.545000 39 74 89
-0.072577 0.027215 0.547000 43 78 93
-0.071803 0.027265 0.548000 46 81 96
-0.071024 0.027315 0.549000 47 82 97
-0.070115 0.027315 0.549000 48 83 98
-0.069332 0.027365 0.550000 48 83 98
-0.068546 0.027414 0.551000 45 83 97
-0.067633 0.027414 0.551000 44 82 96
-0.066721 0.027414 0.551000 42 81 97
-0.065808 0.027414 0.551000 40 79 95
-0.065013 0.027464 0.552000 40 82 97
-0.064099 0.027464 0.552000 41 83 98
-0.063300 0.027514 0.553000 40 82 97
-0.062384 0.027514 0.553000 44 86 101
-0.061579 0.027564 0.554000 50 92 107
-0.060662 0.027564 0.554000 51 93 108
-0.059744 0.027564 0.554000 53 92 108
-0.058933 0.027613 0.555000 52 91 107
-0.058014 0.027613 0.555000 51 86 101
-0.057095 0.027613 0.555000 47 82 97
-0.056277 0.027663 0.556000 43 78 93
-0.055456 0.027713 0.557000 38 73 88
-0.054533 0.027713 0.557000 33 68 83
-0.053611 0.027713 0.557000 28 63 78
-0.052688 0.027713 0.557000 28 62 72
-0.051766 0.027713 0.557000 24 58 68
-0.050844 0.027713 0.557000 22 51 63
-0.049831 0.027663 0.556000 20 49 61
-0.048911 0.027663 0.556000 19 46 59
-0.047990 0.027663 0.556000 18 45 58
-0.046985 0.027613 0.555000 16 43 56
-0.046065 0.027613 0.555000 14 41 54
-0.045065 0.027564 0.554000 16 40 54
-0.044068 0.027514 0.553000 16 40 54
-0.043074 0.027464 0.552000 16 40 54
-0.042160 0.027464 0.552000 15 39 53
-0.041246 0.027464 0.552000 14 38 52
-0.040258 0.027414 0.551000 14 38 52
-0.039346 0.027414 0.551000 13 37 49
-0.038364 0.027365 0.550000 12 36 48
-0.037385 0.027315 0.549000 14 36 46
-0.036476 0.027315 0.549000 15 37 47
-0.035502 0.027265 0.548000 15 38 45
-0.034531 0.027215 0.547000 15 38 45
-0.033564 0.027166 0.546000 16 37 45
-0.032659 0.027166 0.546000 17 38 46
-0.031697 0.027116 0.545000 13 42 54
-0.030738 0.027066 0.544000 48 77 89
-0.029837 0.027066 0.544000 48 88 99
-0.028936 0.027066 0.544000 51 91 102
-0.028035 0.027066 0.544000 49 92 104
-0.027134 0.027066 0.544000 48 91 103
-0.089089 0.027351 0.532000 44 84 97
-0.088208 0.027351 0.532000 44 84 97
-0.087163 0.027300 0.531000 43 86 98
-0.086283 0.027300 0.531000 43 86 98
-0.085404 0.027300 0.531000 43 86 98
-0.084524 0.027300 0.531000 43 86 98
-0.083645 0.027300 0.531000 45 85 98
-0.082766 0.027300 0.531000 45 85 98
-0.082041 0.027351 0.532000 44 84 97
-0.081159 0.027351 0.532000 44 84 97
-0.080429 0.027403 0.533000 42 81 97
-0.079696 0.027454 0.534000 42 81 97
-0.078812 0.027454 0.534000 17 51 73
-0.078073 0.027506 0.535000 13 47 69
-0.077331 0.027557 0.536000 21 51 72
-0.076872 0.027711 0.539000 22 52 73
-0.075979 0.027711 0.539000 29 60 76
-0.075226 0.027763 0.540000 30 61 77
-0.074607 0.027865 0.542000 31 66 81
-0.073981 0.027968 0.544000 34 69 84
-0.073080 0.027968 0.544000 40 75 90
-0.072312 0.028020 0.545000 45 80 95
-0.071672 0.028123 0.547000 47 82 97
-0.070895 0.028174 0.548000 47 82 97
-0.069988 0.028174 0.548000 49 83 101
-0.069206 0.028225 0.549000 49 83 101
-0.068297 0.028225 0.549000 45 82 99
-0.067388 0.028225 0.549000 44 81 98
-0.066600 0.028277 0.550000 42 81 97
-0.065689 0.028277 0.550000 42 81 97
-0.064896 0.028328 0.551000 41 83 98
-0.063983 0.028328 0.551000 42 84 99
-0.063071 0.028328 0.551000 38 80 95
-0.062158 0.028328 0.551000 45 87 102
-0.061357 0.028380 0.552000 51 93 110
-0.060443 0.028380 0.552000 52 94 111
-0.059636 0.028431 0.553000 53 92 108
-0.058827 0.028482 0.554000 52 91 107
-0.057909 0.028482 0.554000 51 88 105
-0.057095 0.028534 0.555000 46 83 100
-0.056176 0.028534 0.555000 43 77 95
-0.055257 0.028534 0.555000 39 73 91
-0.054337 0.028534 0.555000 33 67 85
-0.053515 0.028585 0.556000 28 62 80
-0.052594 0.028585 0.556000 28 62 72
-0.051673 0.028585 0.556000 24 58 68
-0.050752 0.028585 0.556000 23 52 64
-0.049742 0.028534 0.555000 22 51 63
-0.048823 0.028534 0.555000 19 46 59
-0.047904 0.028534 0.555000 18 45 58
-0.046900 0.028482 0.554000 17 44 57
-0.045982 0.028482 0.554000 17 44 57
-0.044984 0.028431 0.553000 16 43 56
-0.043988 0.028380 0.552000 16 43 56
-0.043074 0.028380 0.552000 16 43 56
-0.042083 0.028328 0.551000 14 41 54
-0.041171 0.028328 0.551000 15 39 53
-0.040185 0.028277 0.550000 15 39 53
-0.039275 0.028277 0.550000 14 38 50
-0.038294 0.028225 0.549000 13 37 49
-0.037317 0.028174 0.548000 13 37 47
-0.036409 0.028174 0.548000 13 37 47
-0.035502 0.028174 0.548000 15 38 45
-0.034531 0.028123 0.547000 17 40 47
-0.033564 0.028071 0.546000 18 39 47
-0.032659 0.028071 0.546000 15 36 44
-0.031697 0.028020 0.545000 50 81 95
-0.030794 0.028020 0.545000 50 81 95
-0.029892 0.028020 0.545000 48 88 101
-0.028989 0.028020 0.545000 51 91 104
-0.028087 0.028020 0.545000 49 92 104
-0.088539 0.028340 0.534000 46 84 96
-0.087491 0.028287 0.533000 42 85 97
-0.086446 0.028234 0.532000 42 85 97
-0.085565 0.028234 0.532000 43 86 98
-0.084684 0.028234 0.532000 43 86 98
-0.083803 0.028234 0.532000 43 86 98
-0.082922 0.028234 0.532000 43 86 98
-0.082195 0.028287 0.533000 44 83 99
-0.081312 0.028287 0.533000 44 83 99
-0.080580 0.028340 0.534000 43 82 98
-0.079696 0.028340 0.534000 40 79 95
-0.078812 0.028340 0.534000 34 71 92
-0.078073 0.028393 0.535000 17 54 75
-0.077331 0.028446 0.536000 18 52 72
-0.076872 0.028605 0.539000 21 55 75
-0.075979 0.028605 0.539000 28 60 78
-0.075086 0.028605 0.539000 31 63 81
-0.074469 0.028711 0.541000 30 68 82
-0.073845 0.028817 0.543000 34 72 86
-0.072946 0.028817 0.543000 39 77 91
-0.072179 0.028870 0.544000 44 82 96
-0.071409 0.028923 0.545000 47 82 97
-0.070766 0.029030 0.547000 48 83 98
-0.069860 0.029030 0.547000 47 84 101
-0.069080 0.029083 0.548000 47 84 101
-0.068172 0.029083 0.548000 46 83 100
-0.067265 0.029083 0.548000 44 81 98
-0.066357 0.029083 0.548000 41 83 98
-0.065569 0.029136 0.549000 41 83 98
-0.064660 0.029136 0.549000 42 84 99
-0.063751 0.029136 0.549000 43 85 100
-0.062842 0.029136 0.549000 40 82 99
-0.062045 0.029189 0.550000 45 87 104
-0.061246 0.029242 0.551000 52 94 111
-0.060333 0.029242 0.551000 53 95 112
-0.059421 0.029242 0.551000 55 94 110
-0.058614 0.029295 0.552000 53 92 108
-0.057700 0.029295 0.552000 52 89 106
-0.056889 0.029348 0.553000 46 83 100
-0.056074 0.029401 0.554000 43 80 97
-0.055257 0.029454 0.555000 38 75 92
-0.054337 0.029454 0.555000 34 68 86
-0.053418 0.029454 0.555000 28 62 80
-0.052499 0.029454 0.555000 28 62 72
-0.051580 0.029454 0.555000 26 60 70
-0.050661 0.029454 0.555000 23 55 66
-0.049742 0.029454 0.555000 21 53 64
-0.048823 0.029454 0.555000 20 49 61
-0.047817 0.029401 0.554000 18 47 59
-0.046815 0.029348 0.553000 19 46 59
-0.045899 0.029348 0.553000 19 46 59
-0.044902 0.029295 0.552000 17 44 57
-0.043908 0.029242 0.551000 16 43 56
-0.042996 0.029242 0.551000 17 44 57
-0.042083 0.029242 0.551000 16 43 56
-0.041096 0.029189 0.550000 16 40 54
-0.040112 0.029136 0.549000 16 40 54
-0.039203 0.029136 0.549000 15 39 51
-0.038224 0.029083 0.548000 14 38 50
-0.037317 0.029083 0.548000 13 37 47
-0.036409 0.029083 0.548000 14 38 48
-0.035437 0.029030 0.547000 17 40 47
-0.034531 0.029030 0.547000 18 41 48
-0.033564 0.028977 0.546000 17 39 49
-0.032659 0.028977 0.546000 28 50 60
-0.031755 0.028977 0.546000 50 85 98
-0.030851 0.028977 0.546000 50 85 98
-0.029947 0.028977 0.546000 46 89 101
-0.029043 0.028977 0.546000 48 91 103
-0.085002 0.029225 0.534000 43 86 98
-0.083960 0.029171 0.533000 42 85 97
-0.083077 0.029171 0.533000 42 85 97
-0.082349 0.029225 0.534000 44 84 97
-0.081465 0.029225 0.534000 44 84 97
-0.080580 0.029225 0.534000 43 82 98
-0.079696 0.029225 0.534000 42 81 97
-0.078812 0.029225 0.534000 39 76 97
-0.078219 0.029335 0.536000 25 62 83
-0.077331 0.029335 0.536000 18 55 72
-0.076872 0.029499 0.539000 22 59 76
-0.075979 0.029499 0.539000 26 60 78
-0.075086 0.029499 0.539000 29 63 81
-0.074469 0.029608 0.541000 33 68 83
-0.073845 0.029718 0.543000 38 73 88
-0.072946 0.029718 0.543000 40 78 92
-0.072179 0.029773 0.544000 44 82 96
-0.071409 0.029827 0.545000 45 82 99
-0.070766 0.029937 0.547000 46 83 100
-0.069860 0.029937 0.547000 46 85 101
-0.069080 0.029991 0.548000 47 86 102
-0.068172 0.029991 0.548000 45 84 100
-0.067265 0.029991 0.548000 44 83 99
-0.066357 0.029991 0.548000 43 82 98
-0.065569 0.030046 0.549000 44 83 99
-0.064660 0.030046 0.549000 42 84 99
-0.063751 0.030046 0.549000 44 86 101
-0.062842 0.030046 0.549000 41 83 100
-0.062045 0.030101 0.550000 46 88 105
-0.061246 0.030156 0.551000 53 95 112
-0.060333 0.030156 0.551000 55 97 114
-0.059421 0.030156 0.551000 55 97 114
-0.058614 0.030210 0.552000 52 94 111
-0.057700 0.030210 0.552000 51 90 106
-0.056889 0.030265 0.553000 46 85 101
-0.056074 0.030320 0.554000 42 81 97
-0.055257 0.030375 0.555000 37 76 92
-0.054337 0.030375 0.555000 35 69 87
-0.053418 0.030375 0.555000 29 63 81
-0.052499 0.030375 0.555000 29 62 75
-0.051580 0.030375 0.555000 27 60 73
-0.050661 0.030375 0.555000 23 55 66
-0.049742 0.030375 0.555000 22 54 65
-0.048823 0.030375 0.555000 23 50 63
-0.047817 0.030320 0.554000 21 48 61
-0.046815 0.030265 0.553000 19 46 59
-0.045899 0.030265 0.553000 20 47 60
-0.044902 0.030210 0.552000 19 46 59
-0.043908 0.030156 0.551000 18 45 58
-0.042996 0.030156 0.551000 20 44 58
-0.042083 0.030156 0.551000 20 44 58
-0.041096 0.030101 0.550000 21 43 57
-0.040112 0.030046 0.549000 20 42 56
-0.039203 0.030046 0.549000 17 39 51
-0.038224 0.029991 0.548000 17 39 51
-0.037317 0.029991 0.548000 16 38 48
-0.036409 0.029991 0.548000 17 39 49
-0.035437 0.029937 0.547000 17 39 49
-0.034531 0.029937 0.547000 20 42 52
-0.033625 0.029937 0.547000 14 41 52
-0.032719 0.029937 0.547000 51 78 89
-0.031813 0.029937 0.547000 46 84 96
-0.030908 0.029937 0.547000 49 87 99
-0.082349 0.030111 0.534000 44 84 97
-0.081465 0.030111 0.534000 45 85 98
-0.080580 0.030111 0.534000 44 81 98
-0.079696 0.030111 0.534000 43 80 97
-0.078812 0.030111 0.534000 39 78 96
-0.078219 0.030224 0.536000 37 76 94
-0.077331 0.030224 0.536000 24 63 79
-0.076729 0.030336 0.538000 23 62 78
-0.075838 0.030336 0.538000 25 62 79
-0.075086 0.030393 0.539000 29 66 83
-0.074469 0.030505 0.541000 34 69 84
-0.073709 0.030562 0.542000 39 74 89
-0.072812 0.030562 0.542000 40 78 92
-0.072047 0.030618 0.543000 44 82 96
-0.071278 0.030675 0.544000 44 84 97
-0.070507 0.030731 0.545000 46 86 99
-0.069604 0.030731 0.545000 46 86 99
-0.068828 0.030787 0.546000 47 87 100
-0.068048 0.030844 0.547000 46 86 99
-0.067142 0.030844 0.547000 44 84 97
-0.066236 0.030844 0.547000 44 83 99
-0.065330 0.030844 0.547000 44 83 99
-0.064425 0.030844 0.547000 42 84 99
-0.063519 0.030844 0.547000 45 87 102
-0.062727 0.030900 0.548000 41 83 100
-0.061820 0.030900 0.548000 50 92 109
-0.060912 0.030900 0.548000 55 97 116
-0.060114 0.030957 0.549000 56 98 117
-0.059421 0.031069 0.551000 55 97 114
-0.058508 0.031069 0.551000 52 94 111
-0.057596 0.031069 0.551000 51 93 108
-0.056786 0.031126 0.552000 45 87 102
-0.055973 0.031182 0.553000 43 82 98
-0.055157 0.031239 0.554000 38 77 93
-0.054240 0.031239 0.554000 34 71 88
-0.053322 0.031239 0.554000 29 66 83
-0.052499 0.031295 0.555000 27 62 75
-0.051580 0.031295 0.555000 25 60 73
-0.050570 0.031239 0.554000 25 57 68
-0.049652 0.031239 0.554000 22 54 65
-0.048735 0.031239 0.554000 24 51 64
-0.047731 0.031182 0.553000 23 50 63
-0.046731 0.031126 0.552000 20 47 60
-0.045816 0.031126 0.552000 20 47 60
-0.044821 0.031069 0.551000 21 45 59
-0.043908 0.031069 0.551000 21 45 59
-0.042996 0.031069 0.551000 21 45 59
-0.042007 0.031013 0.550000 20 44 58
-0.041021 0.030957 0.549000 23 45 59
-0.040039 0.030900 0.548000 21 43 57
-0.039132 0.030900 0.548000 18 40 52
-0.038224 0.030900 0.548000 18 40 52
-0.037317 0.030900 0.548000 18 40 50
-0.036409 0.030900 0.548000 20 42 52
-0.035437 0.030844 0.547000 18 40 50
-0.034531 0.030844 0.547000 20 42 52
-0.033625 0.030844 0.547000 30 61 75
-0.032719 0.030844 0.547000 51 82 96
-0.031813 0.030844 0.547000 48 86 98
-0.082657 0.031112 0.536000 45 83 97
-0.081770 0.031112 0.536000 46 84 98
-0.080882 0.031112 0.536000 44 82 96
-0.079994 0.031112 0.536000 44 82 96
-0.079107 0.031112 0.536000 38 80 97
-0.078219 0.031112 0.536000 37 79 96
-0.077476 0.031170 0.537000 40 79 97
-0.076729 0.031229 0.538000 26 65 83
-0.075838 0.031229 0.538000 27 64 81
-0.075086 0.031287 0.539000 30 67 84
-0.074469 0.031403 0.541000 34 72 86
-0.073709 0.031461 0.542000 38 76 90
-0.072812 0.031461 0.542000 39 79 92
-0.072047 0.031519 0.543000 43 83 96
-0.071278 0.031577 0.544000 44 84 97
-0.070378 0.031577 0.544000 46 86 99
-0.069477 0.031577 0.544000 47 87 100
-0.068702 0.031635 0.545000 47 87 100
-0.067799 0.031635 0.545000 48 88 101
-0.066897 0.031635 0.545000 45 85 98
-0.065994 0.031635 0.545000 44 84 97
-0.065211 0.031693 0.546000 44 84 97
-0.064307 0.031693 0.546000 43 85 100
-0.063403 0.031693 0.546000 46 88 103
-0.062498 0.031693 0.546000 42 84 99
-0.061707 0.031751 0.547000 50 92 107
-0.060801 0.031751 0.547000 55 99 115
-0.060005 0.031809 0.548000 55 99 115
-0.059205 0.031867 0.549000 56 98 115
-0.058402 0.031925 0.550000 52 94 111
-0.057491 0.031925 0.550000 51 93 110
-0.056683 0.031983 0.551000 45 87 104
-0.055872 0.032041 0.552000 45 82 101
-0.055057 0.032099 0.553000 40 77 96
-0.054142 0.032099 0.553000 39 73 91
-0.053226 0.032099 0.553000 32 66 84
-0.052405 0.032157 0.554000 30 63 76
-0.051487 0.032157 0.554000 28 61 74
-0.050478 0.032099 0.553000 24 58 68
-0.049563 0.032099 0.553000 21 55 65
-0.048647 0.032099 0.553000 25 52 65
-0.047645 0.032041 0.552000 23 50 63
-0.046646 0.031983 0.551000 21 48 61
-0.045733 0.031983 0.551000 21 48 61
-0.044740 0.031925 0.550000 22 46 60
-0.043829 0.031925 0.550000 22 46 60
-0.042918 0.031925 0.550000 23 47 61
-0.041931 0.031867 0.549000 21 45 59
-0.040947 0.031809 0.548000 24 46 60
-0.040039 0.031809 0.548000 24 46 60
-0.039132 0.031809 0.548000 22 44 56
-0.038224 0.031809 0.548000 21 43 55
-0.037249 0.031751 0.547000 21 43 53
-0.036343 0.031751 0.547000 21 43 53
-0.035437 0.031751 0.547000 16 43 56
-0.034531 0.031751 0.547000 26 53 66
-0.033625 0.031751 0.547000 47 82 97
-0.032779 0.031809 0.548000 51 86 101
-0.082075 0.032121 0.538000 48 83 96
-0.081033 0.032061 0.537000 44 82 96
-0.080144 0.032061 0.537000 44 82 96
-0.079402 0.032121 0.538000 40 82 99
-0.078511 0.032121 0.538000 38 80 97
-0.077620 0.032121 0.538000 43 85 102
-0.076872 0.032180 0.539000 34 76 93
-0.075979 0.032180 0.539000 31 70 86
-0.075226 0.032240 0.540000 32 71 87
-0.074469 0.032300 0.541000 35 75 88
-0.073709 0.032359 0.542000 39 79 92
-0.072812 0.032359 0.542000 42 82 95
-0.072047 0.032419 0.543000 44 84 97
-0.071278 0.032479 0.544000 45 85 98
-0.070378 0.032479 0.544000 47 87 100
-0.069477 0.032479 0.544000 48 88 101
-0.068702 0.032539 0.545000 48 88 101
-0.067799 0.032539 0.545000 48 88 101
-0.066897 0.032539 0.545000 46 86 99
-0.065994 0.032539 0.545000 45 84 100
-0.065211 0.032598 0.546000 45 84 100
-0.064307 0.032598 0.546000 42 86 100
-0.063403 0.032598 0.546000 45 89 103
-0.062498 0.032598 0.546000 42 86 102
-0.061707 0.032658 0.547000 49 93 109
-0.060801 0.032658 0.547000 55 99 115
-0.060005 0.032718 0.548000 55 99 115
-0.059205 0.032777 0.549000 56 98 115
-0.058402 0.032837 0.550000 53 95 112
-0.057491 0.032837 0.550000 54 93 111
-0.056683 0.032897 0.551000 48 87 105
-0.055872 0.032957 0.552000 46 83 102
-0.055057 0.033016 0.553000 43 80 99
-0.054142 0.033016 0.553000 39 73 91
-0.053226 0.033016 0.553000 32 66 84
-0.052405 0.033076 0.554000 29 64 79
-0.051487 0.033076 0.554000 27 62 77
-0.050478 0.033016 0.553000 26 59 72
-0.049563 0.033016 0.553000 22 55 68
-0.048647 0.033016 0.553000 25 52 65
-0.047645 0.032957 0.552000 24 51 64
-0.046646 0.032897 0.551000 23 50 61
-0.045733 0.032897 0.551000 23 50 61
-0.044740 0.032837 0.550000 23 50 61
-0.043829 0.032837 0.550000 23 50 61
-0.042918 0.032837 0.550000 23 50 61
-0.041931 0.032777 0.549000 21 48 59
-0.040947 0.032718 0.548000 23 47 59
-0.040039 0.032718 0.548000 23 47 59
-0.039132 0.032718 0.548000 24 46 58
-0.038224 0.032718 0.548000 23 45 57
-0.037249 0.032658 0.547000 21 45 57
-0.036343 0.032658 0.547000 20 44 56
-0.035437 0.032658 0.547000 21 54 69
-0.034531 0.032658 0.547000 43 76 91
-0.033687 0.032718 0.548000 45 85 98
-0.079402 0.033013 0.538000 41 83 100
-0.078511 0.033013 0.538000 40 82 99
-0.077620 0.033013 0.538000 43 85 102
-0.076872 0.033074 0.539000 40 82 99
-0.075979 0.033074 0.539000 39 78 94
-0.075226 0.033136 0.540000 36 75 91
-0.074469 0.033197 0.541000 37 77 90
-0.073709 0.033258 0.542000 40 80 93
-0.072812 0.033258 0.542000 43 83 96
-0.071914 0.033258 0.542000 45 85 98
-0.071147 0.033320 0.543000 46 86 99
-0.070378 0.033381 0.544000 50 90 103
-0.069477 0.033381 0.544000 48 88 101
-0.068576 0.033381 0.544000 48 88 101
-0.067799 0.033442 0.545000 48 88 101
-0.066774 0.033381 0.544000 46 86 99
-0.065873 0.033381 0.544000 46 85 101
-0.065092 0.033442 0.545000 45 84 100
-0.064189 0.033442 0.545000 42 86 100
-0.063286 0.033442 0.545000 45 89 103
-0.062384 0.033442 0.545000 42 86 102
-0.061594 0.033504 0.546000 49 93 109
-0.060690 0.033504 0.546000 55 99 115
-0.059895 0.033565 0.547000 56 100 116
-0.059097 0.033626 0.548000 56 98 115
-0.058296 0.033688 0.549000 53 95 112
-0.057387 0.033688 0.549000 54 93 111
-0.056580 0.033749 0.550000 50 89 107
-0.055771 0.033811 0.551000 47 84 103
-0.054958 0.033872 0.552000 43 80 99
-0.054044 0.033872 0.552000 39 73 93
-0.053130 0.033872 0.552000 33 67 87
-0.052310 0.033933 0.553000 29 67 81
-0.051394 0.033933 0.553000 26 64 78
-0.050478 0.033933 0.553000 27 60 73
-0.049473 0.033872 0.552000 23 56 69
-0.048559 0.033872 0.552000 25 54 64
-0.047558 0.033811 0.551000 24 53 63
-0.046646 0.033811 0.551000 25 52 63
-0.045733 0.033811 0.551000 24 51 62
-0.044740 0.033749 0.550000 24 51 62
-0.043749 0.033688 0.549000 24 51 62
