ply
format ascii 1.0
element vertex 1251
property float x
property float y
property float z
property uchar red
property uchar green
property uchar blue
end_header
-0.067122 0.037281 0.562000 11 19 18
-0.066073 0.037215 0.561000 43 73 92
-0.065144 0.037215 0.561000 105 135 154
-0.064101 0.037149 0.560000 76 129 149
-0.063174 0.037149 0.560000 79 132 152
-0.062357 0.037215 0.561000 83 128 153
-0.061428 0.037215 0.561000 24 69 94
-0.060607 0.037281 0.562000 10 28 51
-0.059995 0.037480 0.565000 12 30 53
-0.015763 0.036883 0.556000 0 10 33
-0.014815 0.036817 0.555000 67 78 101
-0.013896 0.036817 0.555000 110 153 174
-0.012930 0.036684 0.553000 99 142 163
-0.011993 0.036618 0.552000 93 143 164
-0.011079 0.036618 0.552000 93 143 164
-0.010165 0.036618 0.552000 92 145 165
-0.009250 0.036618 0.552000 92 145 165
-0.008336 0.036618 0.552000 93 145 168
-0.007422 0.036618 0.552000 92 144 167
-0.006508 0.036618 0.552000 94 146 169
-0.005604 0.036684 0.553000 93 145 168
-0.004705 0.036817 0.555000 94 146 169
-0.003786 0.036817 0.555000 92 144 167
-0.002877 0.036950 0.557000 91 143 166
-0.001965 0.037149 0.560000 89 141 164
-0.001045 0.037414 0.564000 103 149 169
-0.000112 0.037613 0.567000 55 101 121
0.000827 0.037613 0.567000 21 36 51
-0.068053 0.038213 0.562000 16 26 29
-0.067003 0.038145 0.561000 5 15 18
-0.065956 0.038077 0.560000 72 114 131
-0.065028 0.038077 0.560000 90 132 149
-0.064101 0.038077 0.560000 77 130 150
-0.063174 0.038077 0.560000 75 128 148
-0.062357 0.038145 0.561000 78 118 145
-0.061428 0.038145 0.561000 0 34 61
-0.060607 0.038213 0.562000 16 32 53
-0.059995 0.038417 0.565000 12 28 49
-0.014815 0.037737 0.555000 14 19 37
-0.013896 0.037737 0.555000 109 147 170
-0.012930 0.037601 0.553000 102 140 163
-0.011993 0.037533 0.552000 94 144 163
-0.011079 0.037533 0.552000 94 144 163
-0.010165 0.037533 0.552000 94 144 165
-0.009234 0.037465 0.551000 94 144 165
-0.008321 0.037465 0.551000 92 144 167
-0.007409 0.037465 0.551000 92 144 167
-0.006496 0.037465 0.551000 94 146 169
-0.005594 0.037533 0.552000 92 144 167
-0.004688 0.037601 0.553000 95 144 168
-0.003772 0.037601 0.553000 94 143 167
-0.002867 0.037737 0.555000 91 143 166
-0.001958 0.037941 0.558000 90 142 165
-0.001042 0.038213 0.562000 105 147 166
-0.000111 0.038213 0.562000 22 64 83
0.000826 0.038485 0.566000 30 40 54
-0.067932 0.039076 0.561000 5 18 27
-0.066883 0.039006 0.560000 34 47 56
-0.065956 0.039006 0.560000 90 137 154
-0.065028 0.039006 0.560000 83 130 147
-0.064101 0.039006 0.560000 76 131 150
-0.063174 0.039006 0.560000 84 139 158
-0.062357 0.039076 0.561000 40 73 100
-0.061428 0.039076 0.561000 4 37 64
-0.060715 0.039215 0.563000 14 30 49
-0.060101 0.039424 0.566000 11 27 46
-0.014815 0.038658 0.555000 5 11 22
-0.013896 0.038658 0.555000 68 98 119
-0.012954 0.038588 0.554000 115 145 166
-0.011993 0.038449 0.552000 93 143 162
-0.011079 0.038449 0.552000 95 145 164
-0.010146 0.038379 0.551000 95 145 166
-0.009234 0.038379 0.551000 94 144 165
-0.008321 0.038379 0.551000 94 143 167
-0.007409 0.038379 0.551000 95 144 168
-0.006496 0.038379 0.551000 96 145 169
-0.005584 0.038379 0.551000 95 144 168
-0.004680 0.038449 0.552000 95 144 168
-0.003766 0.038449 0.552000 95 144 168
-0.002867 0.038658 0.555000 94 143 167
-0.001958 0.038867 0.558000 100 149 173
-0.001040 0.039076 0.561000 77 111 131
-0.000111 0.039076 0.561000 3 37 57
-0.067932 0.040006 0.561000 0 15 29
-0.066883 0.039935 0.560000 83 100 114
-0.065956 0.039935 0.560000 79 129 148
-0.065028 0.039935 0.560000 79 129 148
-0.064101 0.039935 0.560000 75 128 148
-0.063286 0.040006 0.561000 86 139 159
-0.062468 0.040077 0.562000 12 39 63
-0.061538 0.040077 0.562000 9 36 60
-0.060931 0.040291 0.565000 13 28 45
-0.060313 0.040505 0.568000 10 25 42
-0.014815 0.039578 0.555000 6 13 21
-0.013896 0.039578 0.555000 23 48 71
-0.012954 0.039507 0.554000 122 147 170
-0.011993 0.039364 0.552000 92 142 161
-0.011079 0.039364 0.552000 93 143 162
-0.010146 0.039293 0.551000 94 143 167
-0.009234 0.039293 0.551000 94 143 167
-0.008321 0.039293 0.551000 95 144 168
-0.007409 0.039293 0.551000 96 145 169
-0.006496 0.039293 0.551000 96 145 169
-0.005584 0.039293 0.551000 95 144 168
-0.004680 0.039364 0.552000 95 144 168
-0.003766 0.039364 0.552000 95 144 168
-0.002867 0.039578 0.555000 94 143 167
-0.001958 0.039792 0.558000 108 157 181
-0.001040 0.040006 0.561000 39 64 85
-0.000111 0.040006 0.561000 11 36 57
-0.067811 0.040863 0.560000 22 45 62
-0.066883 0.040863 0.560000 100 123 140
-0.065956 0.040863 0.560000 73 127 142
-0.065028 0.040863 0.560000 76 130 145
-0.064101 0.040863 0.560000 75 125 146
-0.063286 0.040936 0.561000 72 122 143
-0.062468 0.041009 0.562000 4 29 52
-0.061538 0.041009 0.562000 10 35 58
-0.060931 0.041228 0.565000 12 27 42
-0.060313 0.041447 0.568000 10 25 40
-0.013896 0.040499 0.555000 0 21 43
-0.012954 0.040426 0.554000 105 127 149
-0.011993 0.040280 0.552000 95 143 165
-0.011079 0.040280 0.552000 93 141 163
-0.010146 0.040207 0.551000 94 143 167
-0.009234 0.040207 0.551000 94 143 167
-0.008321 0.040207 0.551000 95 144 170
-0.007409 0.040207 0.551000 96 145 171
-0.006496 0.040207 0.551000 96 145 169
-0.005584 0.040207 0.551000 96 145 169
-0.004680 0.040280 0.552000 99 148 172
-0.003766 0.040280 0.552000 95 144 168
-0.002867 0.040499 0.555000 94 142 164
-0.001958 0.040717 0.558000 92 140 162
-0.001040 0.040936 0.561000 14 33 51
-0.000111 0.040936 0.561000 21 40 58
-0.068738 0.041792 0.560000 6 13 17
-0.067811 0.041792 0.560000 74 107 122
-0.066883 0.041792 0.560000 95 128 143
-0.065956 0.041792 0.560000 75 128 146
-0.065028 0.041792 0.560000 72 125 143
-0.064101 0.041792 0.560000 82 129 154
-0.063286 0.041867 0.561000 40 87 112
-0.062802 0.042165 0.565000 9 31 55
-0.061976 0.042240 0.566000 11 33 57
-0.061038 0.042240 0.566000 11 26 41
-0.060420 0.042464 0.569000 8 23 38
-0.013921 0.041493 0.556000 0 12 35
-0.012954 0.041344 0.554000 76 94 117
-0.011993 0.041195 0.552000 102 150 172
-0.011079 0.041195 0.552000 94 142 164
-0.010165 0.041195 0.552000 94 143 167
-0.009234 0.041120 0.551000 94 143 167
-0.008321 0.041120 0.551000 95 144 168
-0.007409 0.041120 0.551000 95 144 168
-0.006496 0.041120 0.551000 94 146 169
-0.005584 0.041120 0.551000 94 146 169
-0.004680 0.041195 0.552000 96 145 169
-0.003766 0.041195 0.552000 94 143 167
-0.002867 0.041419 0.555000 108 151 174
-0.001958 0.041643 0.558000 37 80 103
-0.001042 0.041941 0.562000 19 34 49
-0.068738 0.042721 0.560000 15 25 30
-0.067689 0.042644 0.559000 85 124 140
-0.066764 0.042644 0.559000 82 121 137
-0.065956 0.042721 0.560000 75 128 146
-0.065028 0.042721 0.560000 72 125 143
-0.064101 0.042721 0.560000 88 134 156
-0.063399 0.042873 0.562000 11 57 79
-0.062802 0.043102 0.565000 14 34 58
-0.062085 0.043255 0.567000 10 30 54
-0.061146 0.043255 0.567000 12 24 40
-0.060632 0.043560 0.571000 9 21 37
-0.013921 0.042416 0.556000 0 10 30
-0.012954 0.042263 0.554000 40 54 74
-0.012015 0.042187 0.553000 111 154 175
-0.011099 0.042187 0.553000 98 141 162
-0.010165 0.042110 0.552000 95 145 166
-0.009234 0.042034 0.551000 94 144 165
-0.008321 0.042034 0.551000 95 144 168
-0.007409 0.042034 0.551000 95 144 168
-0.006496 0.042034 0.551000 93 145 168
-0.005594 0.042110 0.552000 93 145 168
-0.004688 0.042187 0.553000 93 145 168
-0.003772 0.042187 0.553000 97 149 172
-0.002872 0.042416 0.556000 101 137 161
-0.001962 0.042644 0.559000 3 39 63
-0.069665 0.043649 0.560000 3 16 27
-0.068738 0.043649 0.560000 57 70 81
-0.067689 0.043571 0.559000 89 136 153
-0.066764 0.043571 0.559000 77 124 141
-0.065956 0.043649 0.560000 77 127 146
-0.065144 0.043727 0.561000 75 125 144
-0.064215 0.043727 0.561000 89 132 153
-0.063512 0.043883 0.563000 0 38 59
-0.063135 0.044273 0.568000 15 35 57
-0.062195 0.044273 0.568000 9 29 51
-0.061254 0.044273 0.568000 12 24 40
-0.060632 0.044507 0.571000 9 21 37
-0.013921 0.043338 0.556000 0 14 29
-0.012977 0.043260 0.555000 17 32 47
-0.012015 0.043104 0.553000 110 154 172
-0.011099 0.043104 0.553000 99 143 161
-0.010165 0.043026 0.552000 95 143 165
-0.009250 0.043026 0.552000 96 144 166
-0.008336 0.043026 0.552000 95 144 168
-0.007422 0.043026 0.552000 95 144 168
-0.006508 0.043026 0.552000 95 144 168
-0.005604 0.043104 0.553000 94 143 167
-0.004697 0.043182 0.554000 94 143 167
-0.003779 0.043182 0.554000 105 154 178
-0.002877 0.043415 0.557000 61 88 110
-0.076573 0.045374 0.570000 18 26 23
-0.075629 0.045374 0.570000 18 26 23
-0.074292 0.045135 0.567000 18 26 23
-0.073353 0.045135 0.567000 19 27 24
-0.070719 0.044658 0.561000 17 25 24
-0.069541 0.044498 0.559000 4 24 37
-0.068615 0.044498 0.559000 99 119 132
-0.067689 0.044498 0.559000 74 124 143
-0.066764 0.044498 0.559000 74 124 143
-0.065956 0.044578 0.560000 75 125 144
-0.065144 0.044658 0.561000 75 125 144
-0.064215 0.044658 0.561000 74 116 135
-0.063512 0.044817 0.563000 0 34 53
-0.062913 0.045056 0.566000 15 35 57
-0.062195 0.045215 0.568000 8 28 50
-0.061254 0.045215 0.568000 12 24 38
-0.060632 0.045454 0.571000 9 21 35
-0.013921 0.044260 0.556000 0 12 26
-0.012977 0.044180 0.555000 10 22 36
-0.012015 0.044021 0.553000 99 141 160
-0.011099 0.044021 0.553000 101 143 162
-0.010165 0.043941 0.552000 95 143 165
-0.009250 0.043941 0.552000 95 143 165
-0.008336 0.043941 0.552000 95 144 168
-0.007422 0.043941 0.552000 94 143 167
-0.006508 0.043941 0.552000 94 143 167
-0.005604 0.044021 0.553000 93 142 166
-0.004697 0.044100 0.554000 95 143 165
-0.003779 0.044100 0.554000 103 151 173
-0.076439 0.046238 0.569000 18 26 23
-0.075496 0.046238 0.569000 18 26 23
-0.074161 0.045994 0.566000 18 26 23
-0.072836 0.045750 0.563000 19 27 24
-0.071903 0.045750 0.563000 19 27 26
-0.070593 0.045507 0.560000 11 19 18
-0.069417 0.045344 0.558000 45 73 88
-0.068492 0.045344 0.558000 91 119 134
-0.067568 0.045344 0.558000 71 124 142
-0.066644 0.045344 0.558000 72 125 143
-0.065838 0.045425 0.559000 75 125 144
-0.065144 0.045588 0.561000 75 125 144
-0.064215 0.045588 0.561000 71 109 132
-0.063512 0.045750 0.563000 0 31 54
-0.062913 0.045994 0.566000 13 34 53
-0.062304 0.046238 0.569000 8 29 48
-0.061362 0.046238 0.569000 10 26 36
-0.060738 0.046482 0.572000 8 24 34
-0.013946 0.045263 0.557000 5 16 27
-0.012977 0.045100 0.555000 5 16 27
-0.012015 0.044938 0.553000 88 130 149
-0.011099 0.044938 0.553000 102 144 163
-0.010165 0.044857 0.552000 94 144 165
-0.009250 0.044857 0.552000 94 144 165
-0.008336 0.044857 0.552000 95 144 168
-0.007436 0.044938 0.553000 96 145 169
-0.006520 0.044938 0.553000 94 143 167
-0.005614 0.045019 0.554000 93 142 166
-0.004705 0.045100 0.555000 105 151 173
-0.003786 0.045100 0.555000 61 107 129
-0.076439 0.047182 0.569000 19 27 24
-0.075496 0.047182 0.569000 18 26 23
-0.074161 0.046933 0.566000 18 26 23
-0.072836 0.046684 0.563000 20 28 25
-0.071903 0.046684 0.563000 17 28 28
-0.070593 0.046435 0.560000 10 21 21
-0.069417 0.046269 0.558000 93 127 145
-0.068492 0.046269 0.558000 84 118 136
-0.067568 0.046269 0.558000 71 124 142
-0.066644 0.046269 0.558000 71 124 142
-0.065838 0.046352 0.559000 75 125 144
-0.065144 0.046518 0.561000 81 131 150
-0.064215 0.046518 0.561000 62 98 122
-0.063512 0.046684 0.563000 0 32 56
-0.062913 0.046933 0.566000 13 34 53
-0.062304 0.047182 0.569000 7 28 47
-0.061362 0.047182 0.569000 12 25 36
-0.013946 0.046186 0.557000 5 16 27
-0.012977 0.046021 0.555000 1 12 23
-0.012015 0.045855 0.553000 75 114 132
-0.011099 0.045855 0.553000 113 152 170
-0.010183 0.045855 0.553000 95 145 164
-0.009267 0.045855 0.553000 95 145 164
-0.008351 0.045855 0.553000 96 146 167
-0.007449 0.045938 0.554000 95 145 166
-0.006532 0.045938 0.554000 92 144 167
-0.005624 0.046021 0.555000 91 143 166
-0.004722 0.046186 0.557000 106 147 169
-0.003820 0.046435 0.560000 14 55 77
-0.076304 0.048041 0.568000 18 26 23
-0.075364 0.048041 0.568000 18 26 23
-0.074030 0.047787 0.565000 18 26 23
-0.072706 0.047533 0.562000 20 28 25
-0.071776 0.047533 0.562000 12 24 30
-0.070593 0.047364 0.560000 44 56 62
-0.069292 0.047110 0.557000 92 134 149
-0.068370 0.047110 0.557000 79 121 136
-0.067447 0.047110 0.557000 72 125 143
-0.066644 0.047195 0.558000 71 124 142
-0.065838 0.047279 0.559000 74 124 143
-0.065144 0.047448 0.561000 77 127 146
-0.064215 0.047448 0.561000 52 90 115
-0.063512 0.047618 0.563000 0 34 59
-0.062913 0.047871 0.566000 9 32 51
-0.062304 0.048125 0.569000 5 28 47
-0.061362 0.048125 0.569000 8 24 34
-0.013946 0.047110 0.557000 5 14 24
-0.012977 0.046941 0.555000 2 11 21
-0.012015 0.046772 0.553000 61 98 117
-0.011099 0.046772 0.553000 114 151 170
-0.010183 0.046772 0.553000 96 147 163
-0.009267 0.046772 0.553000 94 145 161
-0.008351 0.046772 0.553000 95 145 166
-0.007449 0.046856 0.554000 94 144 165
-0.006532 0.046856 0.554000 94 144 165
-0.005624 0.046941 0.555000 98 148 169
-0.004722 0.047110 0.557000 81 113 131
-0.076170 0.048896 0.567000 18 26 23
-0.075231 0.048896 0.567000 18 26 23
-0.073899 0.048638 0.564000 19 27 26
-0.072577 0.048379 0.561000 20 28 27
-0.071648 0.048379 0.561000 4 19 34
-0.070467 0.048206 0.559000 97 112 127
-0.069292 0.048034 0.557000 78 125 142
-0.068370 0.048034 0.557000 77 124 141
-0.067447 0.048034 0.557000 72 125 143
-0.066525 0.048034 0.557000 70 123 141
-0.065720 0.048120 0.558000 74 124 145
-0.065028 0.048293 0.560000 75 125 146
-0.064101 0.048293 0.560000 48 86 109
-0.063512 0.048551 0.563000 0 34 57
-0.062913 0.048810 0.566000 9 32 51
-0.062195 0.048982 0.568000 5 28 47
-0.061254 0.048982 0.568000 7 25 34
-0.013971 0.048120 0.558000 5 15 22
-0.012977 0.047861 0.555000 0 9 16
-0.012036 0.047775 0.554000 64 98 116
-0.011119 0.047775 0.554000 114 148 166
-0.010183 0.047689 0.553000 96 147 163
-0.009267 0.047689 0.553000 96 147 163
-0.008367 0.047775 0.554000 95 145 166
-0.007463 0.047861 0.555000 94 144 165
-0.006543 0.047861 0.555000 94 144 165
-0.005634 0.047948 0.556000 106 156 177
-0.076170 0.049836 0.567000 18 26 23
-0.075231 0.049836 0.567000 18 26 23
-0.073768 0.049485 0.563000 17 28 28
-0.072447 0.049221 0.560000 16 27 27
-0.071520 0.049221 0.560000 23 46 63
-0.070341 0.049045 0.558000 103 126 143
-0.069043 0.048782 0.555000 74 122 142
-0.068124 0.048782 0.555000 75 123 143
-0.067205 0.048782 0.555000 72 125 145
-0.066405 0.048870 0.556000 70 123 143
-0.065720 0.049045 0.558000 71 124 144
-0.065028 0.049221 0.560000 69 122 142
-0.064101 0.049221 0.560000 47 85 108
-0.063512 0.049485 0.563000 0 35 58
-0.062913 0.049749 0.566000 9 32 51
-0.062195 0.049924 0.568000 5 28 47
-0.061254 0.049924 0.568000 7 25 34
-0.060738 0.050276 0.572000 6 24 33
-0.013971 0.049045 0.558000 5 15 22
-0.012977 0.048782 0.555000 0 9 16
-0.012036 0.048694 0.554000 60 92 110
-0.011119 0.048694 0.554000 115 147 165
-0.010201 0.048694 0.554000 95 146 162
-0.009284 0.048694 0.554000 95 146 162
-0.008382 0.048782 0.555000 94 144 165
-0.007476 0.048870 0.556000 94 144 165
-0.006555 0.048870 0.556000 104 148 166
-0.005645 0.048958 0.557000 91 135 153
-0.076304 0.050866 0.568000 17 25 22
-0.073768 0.050419 0.563000 16 28 30
-0.072447 0.050150 0.560000 8 20 22
-0.071520 0.050150 0.560000 70 100 119
-0.070341 0.049971 0.558000 95 125 144
-0.069043 0.049702 0.555000 75 124 141
-0.068124 0.049702 0.555000 75 124 141
-0.067205 0.049702 0.555000 72 125 143
-0.066405 0.049792 0.556000 70 123 141
-0.065720 0.049971 0.558000 70 123 143
-0.065028 0.050150 0.560000 69 122 142
-0.064101 0.050150 0.560000 45 83 106
-0.063512 0.050419 0.563000 0 33 56
-0.062913 0.050687 0.566000 11 32 51
-0.062304 0.050956 0.569000 7 28 47
-0.061362 0.050956 0.569000 7 25 34
-0.060738 0.051224 0.572000 6 24 33
-0.013971 0.049971 0.558000 7 14 22
-0.013001 0.049792 0.556000 1 8 16
-0.012058 0.049702 0.555000 60 92 110
-0.011139 0.049702 0.555000 114 146 164
-0.010220 0.049702 0.555000 95 145 164
-0.009301 0.049702 0.555000 95 145 164
-0.008382 0.049702 0.555000 94 144 165
-0.007489 0.049881 0.557000 94 144 165
-0.006567 0.049881 0.557000 115 154 172
-0.005665 0.050060 0.559000 43 82 100
-0.075767 0.051443 0.564000 16 27 23
-0.074833 0.051443 0.564000 15 26 22
-0.073637 0.051261 0.562000 9 23 29
-0.072447 0.051079 0.560000 20 34 40
-0.071520 0.051079 0.560000 92 131 149
-0.070215 0.050805 0.557000 82 121 139
-0.069043 0.050622 0.555000 77 124 141
-0.068124 0.050622 0.555000 78 125 142
-0.067205 0.050622 0.555000 74 124 143
-0.066405 0.050714 0.556000 72 122 141
-0.065720 0.050896 0.558000 69 122 142
-0.065028 0.051079 0.560000 69 122 142
-0.064101 0.051079 0.560000 49 90 114
-0.063512 0.051352 0.563000 0 35 59
-0.062913 0.051626 0.566000 11 32 51
-0.062195 0.051808 0.568000 7 28 47
-0.061254 0.051808 0.568000 7 25 32
-0.060632 0.052082 0.571000 7 25 32
-0.013971 0.050896 0.558000 7 14 22
-0.013001 0.050714 0.556000 1 8 16
-0.012058 0.050622 0.555000 73 105 125
-0.011139 0.050622 0.555000 113 145 165
-0.010220 0.050622 0.555000 95 145 166
-0.009301 0.050622 0.555000 96 146 167
-0.008382 0.050622 0.555000 94 144 165
-0.007489 0.050805 0.557000 96 146 167
-0.006567 0.050805 0.557000 97 131 151
-0.075633 0.052286 0.563000 18 26 23
-0.074700 0.052286 0.563000 18 26 23
-0.073506 0.052100 0.561000 0 17 29
-0.072189 0.051821 0.558000 75 92 104
-0.071265 0.051821 0.558000 84 128 144
-0.070088 0.051636 0.556000 79 123 139
-0.069043 0.051543 0.555000 78 125 142
-0.068124 0.051543 0.555000 77 124 141
-0.067205 0.051543 0.555000 75 123 143
-0.066286 0.051543 0.555000 72 120 140
-0.065720 0.051821 0.558000 69 122 142
-0.065028 0.052007 0.560000 69 122 142
-0.064101 0.052007 0.560000 59 102 125
-0.063399 0.052193 0.562000 0 34 57
-0.062802 0.052472 0.565000 9 32 51
-0.062195 0.052750 0.568000 5 28 47
-0.061254 0.052750 0.568000 8 24 32
-0.060632 0.053029 0.571000 8 24 32
-0.013971 0.051821 0.558000 7 14 22
-0.013001 0.051636 0.556000 0 7 15
-0.012058 0.051543 0.555000 93 124 149
-0.011139 0.051543 0.555000 111 142 167
-0.010220 0.051543 0.555000 95 144 168
-0.009301 0.051543 0.555000 95 144 168
-0.008397 0.051636 0.556000 91 144 164
-0.007503 0.051821 0.558000 105 158 178
-0.006579 0.051821 0.558000 42 72 91
-0.075633 0.053219 0.563000 18 26 25
-0.074700 0.053219 0.563000 17 25 24
-0.073506 0.053030 0.561000 7 28 45
-0.072189 0.052747 0.558000 99 120 137
-0.071265 0.052747 0.558000 75 121 141
-0.070088 0.052558 0.556000 77 123 143
-0.069043 0.052463 0.555000 77 123 143
-0.068124 0.052463 0.555000 77 123 143
-0.067205 0.052463 0.555000 74 122 142
-0.066286 0.052463 0.555000 72 120 140
-0.065720 0.052747 0.558000 69 122 142
-0.065028 0.052936 0.560000 66 119 139
-0.064101 0.052936 0.560000 64 110 132
-0.063399 0.053125 0.562000 0 37 59
-0.062802 0.053408 0.565000 9 34 55
-0.062195 0.053692 0.568000 4 29 50
-0.061254 0.053692 0.568000 10 26 36
-0.060632 0.053976 0.571000 8 24 34
-0.014896 0.052747 0.558000 6 12 12
-0.013971 0.052747 0.558000 8 12 24
-0.013001 0.052558 0.556000 5 9 21
-0.012058 0.052463 0.555000 98 131 158
-0.011139 0.052463 0.555000 104 137 164
-0.010238 0.052558 0.556000 94 143 167
-0.009318 0.052558 0.556000 94 143 167
-0.008412 0.052652 0.557000 95 145 166
-0.007516 0.052841 0.559000 94 144 165
-0.075633 0.054153 0.563000 16 27 27
-0.074568 0.054057 0.562000 6 17 17
-0.073375 0.053864 0.560000 56 81 102
-0.072059 0.053576 0.557000 94 119 140
-0.071137 0.053576 0.557000 76 122 142
-0.069962 0.053384 0.555000 77 123 143
-0.068919 0.053287 0.554000 74 122 142
-0.068001 0.053287 0.554000 74 122 142
-0.067084 0.053287 0.554000 74 122 144
-0.066286 0.053384 0.555000 73 121 143
-0.065602 0.053576 0.557000 69 122 142
-0.065028 0.053864 0.560000 65 118 138
-0.064101 0.053864 0.560000 62 109 134
-0.063399 0.054057 0.562000 0 35 60
-0.062802 0.054345 0.565000 9 36 58
-0.062195 0.054634 0.568000 4 31 53
-0.061254 0.054634 0.568000 9 26 38
-0.060632 0.054923 0.571000 7 24 36
-0.014896 0.053672 0.558000 6 12 12
-0.013971 0.053672 0.558000 5 11 22
-0.013001 0.053480 0.556000 12 18 29
-0.012058 0.053384 0.555000 106 144 169
-0.011139 0.053384 0.555000 102 140 165
-0.010238 0.053480 0.556000 93 142 166
-0.009318 0.053480 0.556000 94 143 167
-0.008412 0.053576 0.557000 101 151 170
-0.007516 0.053768 0.559000 39 89 108
-0.075633 0.055087 0.563000 15 25 30
-0.074435 0.054891 0.561000 11 21 26
-0.073244 0.054695 0.559000 78 112 132
-0.072059 0.054500 0.557000 86 120 140
-0.071009 0.054402 0.556000 78 126 146
-0.069836 0.054206 0.554000 76 124 144
-0.068794 0.054108 0.553000 74 122 144
-0.067879 0.054108 0.553000 74 122 144
-0.066963 0.054108 0.553000 73 121 143
-0.066167 0.054206 0.554000 73 121 143
-0.065485 0.054402 0.556000 70 123 143
-0.064564 0.054402 0.556000 65 118 138
-0.063986 0.054695 0.559000 76 123 148
-0.063399 0.054989 0.562000 11 58 83
-0.062802 0.055282 0.565000 7 37 60
-0.062195 0.055576 0.568000 3 33 56
-0.061254 0.055576 0.568000 8 28 41
-0.060632 0.055869 0.571000 5 25 38
-0.060000 0.056163 0.574000 9 23 27
-0.014896 0.054597 0.558000 6 12 12
-0.013971 0.054597 0.558000 0 7 22
-0.013001 0.054402 0.556000 29 37 52
-0.012080 0.054402 0.556000 105 147 173
-0.011159 0.054402 0.556000 99 141 167
-0.010238 0.054402 0.556000 93 142 166
-0.009318 0.054402 0.556000 93 142 166
-0.008427 0.054597 0.558000 107 149 168
-0.007530 0.054793 0.560000 6 48 67
-0.075498 0.055921 0.562000 10 23 32
-0.074302 0.055722 0.560000 41 54 63
-0.072982 0.055423 0.557000 85 124 144
-0.072059 0.055423 0.557000 81 120 140
-0.070882 0.055224 0.555000 78 126 146
-0.069836 0.055125 0.554000 75 123 143
-0.068794 0.055025 0.553000 74 122 142
-0.067879 0.055025 0.553000 73 121 141
-0.066963 0.055025 0.553000 73 121 143
-0.066047 0.055025 0.553000 73 121 143
-0.065367 0.055224 0.555000 71 121 142
-0.064448 0.055224 0.555000 68 118 139
-0.063986 0.055622 0.559000 72 120 142
-0.063286 0.055821 0.561000 35 83 105
-0.062691 0.056120 0.564000 3 32 58
-0.062195 0.056518 0.568000 6 35 61
-0.061254 0.056518 0.568000 9 29 44
-0.060632 0.056816 0.571000 7 27 42
-0.060000 0.057115 0.574000 9 23 27
-0.059461 0.057513 0.578000 8 22 26
-0.014896 0.055523 0.558000 7 13 13
-0.013971 0.055523 0.558000 0 5 24
-0.013024 0.055423 0.557000 70 78 97
-0.012102 0.055423 0.557000 97 142 167
-0.011179 0.055423 0.557000 97 142 167
-0.010257 0.055423 0.557000 93 143 164
-0.009334 0.055423 0.557000 99 149 170
-0.008442 0.055622 0.559000 72 102 121
-0.075498 0.056853 0.562000 0 21 35
-0.074302 0.056650 0.560000 92 114 128
-0.072982 0.056347 0.557000 77 120 141
-0.072059 0.056347 0.557000 78 121 142
-0.070882 0.056145 0.555000 78 126 146
-0.069836 0.056043 0.554000 76 124 144
-0.068794 0.055942 0.553000 74 122 142
-0.067879 0.055942 0.553000 72 120 140
-0.066963 0.055942 0.553000 72 120 142
-0.066047 0.055942 0.553000 72 120 142
-0.065367 0.056145 0.555000 72 122 143
-0.064448 0.056145 0.555000 68 118 139
-0.063986 0.056549 0.559000 72 122 143
-0.063286 0.056752 0.561000 65 115 136
-0.062691 0.057055 0.564000 0 26 51
-0.062195 0.057460 0.568000 4 37 62
-0.061254 0.057460 0.568000 9 30 47
-0.060632 0.057763 0.571000 7 28 45
-0.060000 0.058067 0.574000 7 24 29
-0.059461 0.058471 0.578000 6 23 28
-0.015876 0.056650 0.560000 7 13 13
-0.014896 0.056448 0.558000 7 13 13
-0.013971 0.056448 0.558000 0 12 32
-0.013024 0.056347 0.557000 99 118 138
-0.012102 0.056347 0.557000 91 140 164
-0.011179 0.056347 0.557000 94 143 167
-0.010257 0.056347 0.557000 92 142 163
-0.009334 0.056347 0.557000 100 150 171
-0.008442 0.056549 0.559000 27 48 65
-0.075364 0.057682 0.561000 23 51 68
-0.074170 0.057476 0.559000 93 121 138
-0.072851 0.057168 0.556000 73 121 141
-0.071930 0.057168 0.556000 74 122 142
-0.070754 0.056962 0.554000 78 126 146
-0.069710 0.056859 0.553000 78 126 146
-0.068794 0.056859 0.553000 75 123 143
-0.067879 0.056859 0.553000 73 121 141
-0.066963 0.056859 0.553000 72 120 142
-0.066047 0.056859 0.553000 72 120 142
-0.065367 0.057065 0.555000 70 120 141
-0.064448 0.057065 0.555000 68 118 139
-0.063872 0.057373 0.558000 71 121 142
-0.063174 0.057579 0.560000 81 131 152
-0.062691 0.057990 0.564000 4 40 64
-0.062085 0.058299 0.567000 2 38 62
-0.061146 0.058299 0.567000 9 32 51
-0.060632 0.058710 0.571000 6 29 48
-0.060000 0.059019 0.574000 8 25 30
-0.059461 0.059430 0.578000 7 24 29
-0.015876 0.057579 0.560000 8 14 16
-0.014869 0.057271 0.557000 6 12 14
-0.013946 0.057271 0.557000 2 34 54
-0.013024 0.057271 0.557000 112 144 164
-0.012102 0.057271 0.557000 90 144 166
-0.011179 0.057271 0.557000 91 145 167
-0.010275 0.057373 0.558000 99 147 167
-0.009351 0.057373 0.558000 76 124 144
-0.075230 0.058508 0.560000 72 106 124
-0.073904 0.058194 0.557000 83 117 135
-0.072720 0.057985 0.555000 75 123 143
-0.071801 0.057985 0.555000 75 123 143
-0.070754 0.057881 0.554000 78 126 146
-0.069710 0.057776 0.553000 78 126 146
-0.068670 0.057672 0.552000 74 122 142
-0.067756 0.057672 0.552000 73 121 141
-0.066842 0.057672 0.552000 72 120 142
-0.066047 0.057776 0.553000 72 120 142
-0.065249 0.057881 0.554000 68 118 139
-0.064332 0.057881 0.554000 68 118 139
-0.063758 0.058194 0.557000 71 121 142
-0.063174 0.058508 0.560000 74 124 145
-0.063024 0.059239 0.567000 47 85 110
-0.062085 0.059239 0.567000 0 31 56
-0.061146 0.059239 0.567000 13 36 55
-0.060526 0.059552 0.570000 7 30 49
-0.060000 0.059970 0.574000 10 26 36
-0.059461 0.060388 0.578000 10 26 36
-0.058504 0.060388 0.578000 10 23 22
-0.016834 0.058612 0.561000 8 16 15
-0.015848 0.058403 0.559000 7 14 18
-0.014869 0.058194 0.557000 1 8 12
-0.013946 0.058194 0.557000 51 89 112
-0.013024 0.058194 0.557000 103 141 164
-0.012102 0.058194 0.557000 91 145 169
-0.011179 0.058194 0.557000 90 144 168
-0.010294 0.058403 0.559000 107 150 171
-0.075230 0.059436 0.560000 87 124 143
-0.073904 0.059118 0.557000 80 117 136
-0.072720 0.058906 0.555000 75 123 145
-0.071801 0.058906 0.555000 75 123 145
-0.070754 0.058800 0.554000 78 126 148
-0.069710 0.058693 0.553000 78 126 148
-0.068670 0.058587 0.552000 75 123 145
-0.067756 0.058587 0.552000 73 121 143
-0.066842 0.058587 0.552000 73 121 143
-0.066047 0.058693 0.553000 72 120 142
-0.065249 0.058800 0.554000 70 120 141
-0.064332 0.058800 0.554000 70 120 141
-0.063758 0.059118 0.557000 72 122 143
-0.063174 0.059436 0.560000 67 117 138
-0.063024 0.060179 0.567000 80 123 146
-0.062085 0.060179 0.567000 0 36 59
-0.061146 0.060179 0.567000 14 36 58
-0.060526 0.060498 0.570000 8 30 52
-0.060000 0.060922 0.574000 10 30 41
-0.059461 0.061347 0.578000 9 29 40
-0.058504 0.061347 0.578000 9 23 25
-0.017763 0.059542 0.561000 10 18 17
-0.016834 0.059542 0.561000 8 16 15
-0.015848 0.059330 0.559000 3 14 23
-0.014869 0.059118 0.557000 4 15 24
-0.013946 0.059118 0.557000 95 140 165
-0.013024 0.059118 0.557000 91 136 161
-0.012102 0.059118 0.557000 93 145 168
-0.011199 0.059224 0.558000 94 146 169
-0.010294 0.059330 0.559000 85 119 141
-0.075095 0.060257 0.559000 79 121 138
-0.073772 0.059934 0.556000 79 121 138
-0.072589 0.059718 0.554000 75 123 145
-0.071671 0.059718 0.554000 75 123 145
-0.070754 0.059718 0.554000 78 126 148
-0.069710 0.059610 0.553000 76 124 146
-0.068670 0.059503 0.552000 76 124 146
-0.067756 0.059503 0.552000 73 121 143
-0.066842 0.059503 0.552000 73 121 143
-0.065928 0.059503 0.552000 72 120 142
-0.065249 0.059718 0.554000 72 120 142
-0.064332 0.059718 0.554000 72 120 142
-0.063643 0.059934 0.556000 73 121 143
-0.063061 0.060257 0.559000 69 117 139
-0.062913 0.061012 0.566000 73 119 141
-0.061976 0.061012 0.566000 30 76 98
-0.061038 0.061012 0.566000 6 33 57
-0.060420 0.061335 0.569000 8 35 59
-0.059895 0.061766 0.573000 10 32 42
-0.059358 0.062198 0.577000 9 31 41
-0.058402 0.062198 0.577000 8 25 30
-0.017763 0.060473 0.561000 10 18 17
-0.016834 0.060473 0.561000 8 16 15
-0.015848 0.060257 0.559000 0 7 21
-0.014869 0.060042 0.557000 59 76 90
-0.013946 0.060042 0.557000 99 148 172
-0.013024 0.060042 0.557000 91 140 164
-0.012102 0.060042 0.557000 91 143 166
-0.011199 0.060149 0.558000 100 152 175
-0.010294 0.060257 0.559000 36 63 83
-0.074961 0.061075 0.558000 75 119 135
-0.073639 0.060746 0.555000 79 123 139
-0.072589 0.060637 0.554000 77 123 143
-0.071671 0.060637 0.554000 77 123 143
-0.070626 0.060527 0.553000 76 124 146
-0.069584 0.060418 0.552000 75 123 145
-0.068670 0.060418 0.552000 75 123 145
-0.067756 0.060418 0.552000 73 121 143
-0.066842 0.060418 0.552000 73 121 143
-0.065928 0.060418 0.552000 74 122 144
-0.065131 0.060527 0.553000 73 121 143
-0.064215 0.060527 0.553000 72 120 142
-0.063529 0.060746 0.555000 72 120 142
-0.062948 0.061075 0.558000 69 117 139
-0.062913 0.061950 0.566000 66 114 136
-0.061976 0.061950 0.566000 73 121 143
-0.061038 0.061950 0.566000 0 33 58
-0.060207 0.062060 0.567000 5 38 63
-0.059686 0.062498 0.571000 7 34 47
-0.058741 0.062498 0.571000 5 32 45
-0.058099 0.062826 0.574000 10 28 37
-0.057447 0.063154 0.577000 6 24 33
-0.018758 0.061622 0.563000 11 19 18
-0.017731 0.061294 0.560000 10 18 19
-0.016804 0.061294 0.560000 7 15 16
-0.015848 0.061184 0.559000 0 21 43
-0.014896 0.061075 0.558000 100 122 144
-0.013971 0.061075 0.558000 92 141 167
-0.013047 0.061075 0.558000 92 141 167
-0.012123 0.061075 0.558000 83 131 153
-0.011219 0.061184 0.559000 80 128 150
-0.074827 0.061889 0.557000 74 121 136
-0.073639 0.061667 0.555000 76 123 138
-0.072458 0.061445 0.553000 74 122 142
-0.071542 0.061445 0.553000 75 123 143
-0.070626 0.061445 0.553000 75 123 145
-0.069584 0.061333 0.552000 75 123 145
-0.068670 0.061333 0.552000 74 121 146
-0.067756 0.061333 0.552000 73 120 145
-0.066842 0.061333 0.552000 73 121 143
-0.065928 0.061333 0.552000 74 122 144
-0.065131 0.061445 0.553000 73 121 143
-0.064215 0.061445 0.553000 72 120 142
-0.063529 0.061667 0.555000 71 119 141
-0.062835 0.061889 0.557000 69 117 139
-0.062135 0.062111 0.559000 67 115 137
-0.061209 0.062111 0.559000 68 116 138
-0.060931 0.062778 0.565000 48 86 109
-0.059995 0.062778 0.565000 0 33 56
-0.059373 0.063111 0.568000 8 36 53
-0.058432 0.063111 0.568000 5 33 50
-0.057795 0.063445 0.571000 9 29 42
-0.057447 0.064111 0.577000 7 27 40
-0.018758 0.062556 0.563000 11 19 18
-0.017731 0.062222 0.560000 10 17 23
-0.016804 0.062222 0.560000 7 14 20
-0.015848 0.062111 0.559000 57 88 113
-0.014896 0.062000 0.558000 104 135 160
-0.013971 0.062000 0.558000 91 140 164
-0.013047 0.062000 0.558000 92 141 165
-0.012123 0.062000 0.558000 106 152 172
-0.011239 0.062222 0.560000 30 76 96
-0.074827 0.062813 0.557000 74 121 136
-0.073639 0.062587 0.555000 76 123 138
-0.072458 0.062362 0.553000 74 123 140
-0.071542 0.062362 0.553000 75 124 141
-0.070626 0.062362 0.553000 75 123 145
-0.069584 0.062249 0.552000 74 122 144
-0.068670 0.062249 0.552000 72 122 143
-0.067756 0.062249 0.552000 71 121 142
-0.066842 0.062249 0.552000 72 122 143
-0.065928 0.062249 0.552000 72 122 143
-0.065131 0.062362 0.553000 72 120 142
-0.064215 0.062362 0.553000 71 119 141
-0.063529 0.062587 0.555000 69 117 139
-0.062835 0.062813 0.557000 69 117 139
-0.062135 0.063038 0.559000 67 115 137
-0.061209 0.063038 0.559000 65 113 135
-0.060931 0.063715 0.565000 83 126 149
-0.059995 0.063715 0.565000 11 54 77
-0.059373 0.064053 0.568000 6 36 57
-0.058432 0.064053 0.568000 6 36 57
-0.057795 0.064391 0.571000 11 31 46
-0.057049 0.064617 0.573000 9 29 44
-0.019726 0.063602 0.564000 12 20 19
-0.018725 0.063377 0.562000 12 20 19
-0.017731 0.063151 0.560000 5 13 30
-0.016804 0.063151 0.560000 27 35 52
-0.015820 0.062925 0.558000 93 131 156
-0.014896 0.062925 0.558000 99 137 162
-0.013971 0.062925 0.558000 94 143 167
-0.013047 0.062925 0.558000 94 143 167
-0.012123 0.062925 0.558000 101 138 159
-0.011239 0.063151 0.560000 12 49 70
-0.074692 0.063622 0.556000 88 130 147
-0.073506 0.063393 0.554000 79 121 138
-0.072458 0.063279 0.553000 73 122 139
-0.071542 0.063279 0.553000 74 123 140
-0.070498 0.063164 0.552000 74 123 140
-0.069458 0.063050 0.551000 73 122 139
-0.068546 0.063050 0.551000 73 121 141
-0.067633 0.063050 0.551000 72 120 140
-0.066721 0.063050 0.551000 73 121 141
-0.065808 0.063050 0.551000 72 120 140
-0.065013 0.063164 0.552000 71 119 141
-0.064099 0.063164 0.552000 71 119 141
-0.063300 0.063279 0.553000 68 116 138
-0.062609 0.063507 0.555000 68 116 138
-0.061913 0.063736 0.557000 67 115 137
-0.060990 0.063736 0.557000 67 115 137
-0.060284 0.063965 0.559000 69 115 137
-0.059889 0.064537 0.564000 64 110 132
-0.058955 0.064537 0.564000 0 32 54
-0.058021 0.064537 0.564000 4 38 60
-0.057390 0.064881 0.567000 11 34 53
-0.056650 0.065109 0.569000 9 32 51
-0.020660 0.064537 0.564000 14 22 21
-0.019726 0.064537 0.564000 14 21 25
-0.018692 0.064194 0.561000 12 19 23
-0.017699 0.063965 0.559000 2 22 46
-0.016774 0.063965 0.559000 92 112 136
-0.015820 0.063851 0.558000 98 141 164
-0.014896 0.063851 0.558000 96 139 162
-0.013971 0.063851 0.558000 93 143 164
-0.013047 0.063851 0.558000 101 151 172
-0.012145 0.063965 0.559000 71 101 122
-0.011239 0.064080 0.560000 29 59 80
-0.074558 0.064428 0.555000 25 50 71
-0.073374 0.064196 0.553000 75 100 121
-0.072327 0.064080 0.552000 84 126 143
-0.071413 0.064080 0.552000 80 122 139
-0.070371 0.063963 0.551000 74 121 136
-0.069458 0.063963 0.551000 70 117 132
-0.068546 0.063963 0.551000 71 117 137
-0.067633 0.063963 0.551000 73 119 139
-0.066600 0.063847 0.550000 71 117 137
-0.065689 0.063847 0.550000 71 117 137
-0.064896 0.063963 0.551000 68 116 136
-0.063983 0.063963 0.551000 68 116 136
-0.063185 0.064080 0.552000 67 115 135
-0.062497 0.064312 0.554000 66 114 134
-0.061690 0.064428 0.555000 65 115 134
-0.060771 0.064428 0.555000 65 115 134
-0.060068 0.064660 0.557000 65 113 133
-0.059358 0.064892 0.559000 69 117 137
-0.058537 0.065008 0.560000 52 94 113
-0.057609 0.065008 0.560000 0 35 54
-0.056884 0.065240 0.562000 12 37 58
-0.056153 0.065473 0.564000 10 35 56
-0.022648 0.065821 0.567000 12 23 21
-0.021632 0.065589 0.565000 11 22 20
-0.020660 0.065473 0.564000 13 24 22
-0.019726 0.065473 0.564000 13 22 32
-0.018659 0.065008 0.560000 8 17 27
-0.017699 0.064892 0.559000 64 96 118
-0.016774 0.064892 0.559000 105 137 159
-0.015820 0.064776 0.558000 88 136 158
-0.014896 0.064776 0.558000 92 140 162
-0.013996 0.064892 0.559000 93 141 163
-0.013071 0.064892 0.559000 100 148 170
-0.012167 0.065008 0.560000 30 52 66
-0.074558 0.065348 0.555000 22 34 52
-0.073374 0.065113 0.553000 12 24 42
-0.072327 0.064995 0.552000 18 43 66
-0.071413 0.064995 0.552000 64 89 112
-0.070371 0.064877 0.551000 83 122 140
-0.069458 0.064877 0.551000 78 117 135
-0.068546 0.064877 0.551000 71 115 133
-0.067633 0.064877 0.551000 71 115 133
-0.066600 0.064759 0.550000 70 113 134
-0.065689 0.064759 0.550000 69 112 133
-0.064896 0.064877 0.551000 64 112 132
-0.063983 0.064877 0.551000 64 112 132
-0.063185 0.064995 0.552000 65 113 133
-0.062497 0.065230 0.554000 64 112 132
-0.061690 0.065348 0.555000 61 111 130
-0.060771 0.065348 0.555000 61 111 130
-0.060068 0.065584 0.557000 64 112 132
-0.059358 0.065819 0.559000 66 114 134
-0.058537 0.065937 0.560000 82 126 142
-0.057609 0.065937 0.560000 36 80 96
-0.056884 0.066172 0.562000 2 32 53
-0.056153 0.066408 0.564000 9 39 60
-0.023711 0.067114 0.570000 13 24 22
-0.022648 0.066761 0.567000 12 23 21
-0.021632 0.066526 0.565000 13 24 22
-0.020696 0.066526 0.565000 15 26 24
-0.018659 0.065937 0.560000 45 61 80
-0.017699 0.065819 0.559000 95 136 158
-0.016774 0.065819 0.559000 93 134 156
-0.015820 0.065701 0.558000 87 140 160
-0.014896 0.065701 0.558000 89 142 162
-0.013996 0.065819 0.559000 95 141 161
-0.068546 0.065791 0.551000 75 112 131
-0.067633 0.065791 0.551000 81 118 137
-0.066600 0.065672 0.550000 69 113 131
-0.065689 0.065672 0.550000 66 110 128
-0.064778 0.065672 0.550000 63 109 129
-0.063867 0.065672 0.550000 62 108 128
-0.063071 0.065791 0.551000 59 107 127
-0.062271 0.065910 0.552000 60 108 128
-0.061468 0.066030 0.553000 58 108 127
-0.060552 0.066030 0.553000 60 110 129
-0.059744 0.066149 0.554000 60 110 129
-0.058933 0.066269 0.555000 64 114 133
-0.058014 0.066269 0.555000 69 116 131
-0.057198 0.066388 0.556000 80 127 142
-0.056479 0.066627 0.558000 37 74 93
-0.055754 0.066866 0.560000 0 34 53
-0.024569 0.067821 0.568000 13 24 22
-0.023628 0.067821 0.568000 15 26 24
-0.022608 0.067582 0.566000 15 26 24
-0.021556 0.067224 0.563000 15 27 33
-0.020550 0.066985 0.561000 8 20 26
-0.019621 0.066985 0.561000 33 65 87
-0.018659 0.066866 0.560000 105 137 159
-0.017699 0.066746 0.559000 88 134 156
-0.016774 0.066746 0.559000 90 136 158
-0.015820 0.066627 0.558000 87 140 160
-0.014896 0.066627 0.558000 87 140 160
-0.013996 0.066746 0.559000 104 143 163
-0.067510 0.066584 0.550000 54 73 91
-0.066600 0.066584 0.550000 73 110 129
-0.065569 0.066463 0.549000 76 113 132
-0.064660 0.066463 0.549000 64 108 126
-0.063751 0.066463 0.549000 62 106 124
-0.062842 0.066463 0.549000 57 105 125
-0.062045 0.066584 0.550000 58 106 126
-0.061135 0.066584 0.550000 56 106 125
-0.060333 0.066705 0.551000 59 109 128
-0.059421 0.066705 0.551000 59 109 128
-0.058614 0.066826 0.552000 60 110 129
-0.057700 0.066826 0.552000 64 111 128
-0.056889 0.066947 0.553000 67 114 131
-0.056074 0.067068 0.554000 66 108 127
-0.025510 0.068763 0.568000 15 26 24
-0.024482 0.068521 0.566000 15 26 24
-0.023545 0.068521 0.566000 16 26 29
-0.022488 0.068157 0.563000 17 27 30
-0.021479 0.067915 0.561000 4 19 43
-0.020550 0.067915 0.561000 42 57 81
-0.019586 0.067794 0.560000 93 133 160
-0.018625 0.067673 0.559000 93 133 160
-0.017699 0.067673 0.559000 88 135 160
-0.016774 0.067673 0.559000 88 135 160
-0.015848 0.067673 0.559000 86 139 159
-0.014922 0.067673 0.559000 87 140 160
-0.014022 0.067794 0.560000 68 102 120
-0.065569 0.067373 0.549000 34 57 76
-0.064660 0.067373 0.549000 62 99 120
-0.063751 0.067373 0.549000 74 111 132
-0.062842 0.067373 0.549000 63 107 125
-0.062045 0.067496 0.550000 61 105 123
-0.061135 0.067496 0.550000 56 107 123
-0.060333 0.067618 0.551000 56 107 123
-0.059421 0.067618 0.551000 57 107 126
-0.058614 0.067741 0.552000 57 107 126
-0.057700 0.067741 0.552000 59 107 127
-0.027487 0.069950 0.570000 15 26 24
-0.026543 0.069950 0.570000 15 26 24
-0.025510 0.069705 0.568000 16 27 27
-0.024482 0.069459 0.566000 16 27 27
-0.023545 0.069459 0.566000 14 26 40
-0.022488 0.069091 0.563000 8 20 34
-0.021479 0.068846 0.561000 44 75 100
-0.020550 0.068846 0.561000 105 136 161
-0.019586 0.068723 0.560000 85 130 155
-0.018625 0.068600 0.559000 91 136 161
-0.017699 0.068600 0.559000 89 136 161
-0.016774 0.068600 0.559000 88 135 160
-0.015848 0.068600 0.559000 88 138 159
-0.014949 0.068723 0.560000 94 144 165
-0.060114 0.068283 0.549000 54 103 120
-0.030266 0.070771 0.569000 17 25 26
-0.029324 0.070771 0.569000 18 26 27
-0.028332 0.070647 0.568000 17 25 26
-0.027294 0.070398 0.566000 15 26 26
-0.026357 0.070398 0.566000 16 27 27
-0.025375 0.070273 0.565000 16 28 34
-0.024353 0.070025 0.563000 8 20 26
-0.023420 0.070025 0.563000 4 32 49
-0.022408 0.069776 0.561000 61 89 106
-0.021402 0.069527 0.559000 90 136 158
-0.020477 0.069527 0.559000 85 131 153
-0.019551 0.069527 0.559000 86 135 159
-0.018592 0.069403 0.558000 87 136 160
-0.017668 0.069403 0.558000 87 136 160
-0.016774 0.069527 0.559000 87 136 160
-0.015848 0.069527 0.559000 92 138 158
-0.014949 0.069652 0.560000 81 127 147
-0.031044 0.071336 0.566000 15 25 28
-0.030106 0.071336 0.566000 15 25 28
-0.029169 0.071336 0.566000 16 26 29
-0.028232 0.071336 0.566000 16 26 29
-0.027198 0.071084 0.564000 16 28 34
-0.026264 0.071084 0.564000 15 27 33
-0.025240 0.070832 0.562000 2 25 42
-0.024223 0.070580 0.560000 35 58 75
-0.023295 0.070580 0.560000 86 130 146
-0.022328 0.070454 0.559000 90 134 150
-0.021326 0.070202 0.557000 79 132 152
-0.020403 0.070202 0.557000 85 138 158
-0.019481 0.070202 0.557000 85 137 160
-0.018559 0.070202 0.557000 86 138 161
-0.017668 0.070328 0.558000 84 136 159
-0.016774 0.070454 0.559000 85 137 160
-0.015848 0.070454 0.559000 99 143 159
-0.014949 0.070580 0.560000 39 83 99
-0.033676 0.071892 0.563000 12 28 36
-0.032802 0.072020 0.564000 16 28 32
-0.031868 0.072020 0.564000 16 28 32
-0.030934 0.072020 0.564000 15 27 31
-0.030000 0.072020 0.564000 16 28 32
-0.029014 0.071892 0.563000 15 28 37
-0.028032 0.071764 0.562000 13 26 35
-0.027053 0.071637 0.561000 4 24 46
-0.026124 0.071637 0.561000 18 38 60
-0.025150 0.071509 0.560000 60 101 123
-0.024136 0.071253 0.558000 81 122 144
-0.023212 0.071253 0.558000 85 134 151
-0.022248 0.071126 0.557000 81 130 147
-0.021288 0.070998 0.556000 80 133 153
-0.020367 0.070998 0.556000 85 138 158
-0.019446 0.070998 0.556000 83 138 157
-0.018525 0.070998 0.556000 83 138 157
-0.017636 0.071126 0.557000 83 137 159
-0.016774 0.071381 0.559000 83 137 159
-0.015848 0.071381 0.559000 97 131 149
-0.014976 0.071637 0.561000 7 41 59
-0.033676 0.072826 0.563000 13 30 46
-0.032802 0.072955 0.564000 14 29 42
-0.031868 0.072955 0.564000 14 29 42
-0.030934 0.072955 0.564000 13 30 44
-0.030000 0.072955 0.564000 11 28 42
-0.029014 0.072826 0.563000 4 29 50
-0.028032 0.072696 0.562000 14 39 60
-0.027053 0.072567 0.561000 51 92 116
-0.026124 0.072567 0.561000 80 121 145
-0.025150 0.072437 0.560000 81 131 152
-0.024136 0.072179 0.558000 79 129 150
-0.023212 0.072179 0.558000 83 131 153
-0.022248 0.072049 0.557000 82 130 152
-0.021288 0.071920 0.556000 83 136 156
-0.020367 0.071920 0.556000 84 137 157
-0.019446 0.071920 0.556000 84 137 157
-0.018525 0.071920 0.556000 84 137 157
-0.017636 0.072049 0.557000 84 137 157
-0.016774 0.072308 0.559000 93 146 166
-0.015848 0.072308 0.559000 55 83 100
-0.033497 0.073366 0.560000 11 31 55
-0.032628 0.073497 0.561000 8 29 48
-0.031699 0.073497 0.561000 10 31 50
-0.030770 0.073497 0.561000 2 32 51
-0.029840 0.073497 0.561000 34 64 83
-0.028860 0.073366 0.560000 65 107 126
-0.027932 0.073366 0.560000 81 123 142
-0.027005 0.073366 0.560000 73 119 141
-0.025985 0.073104 0.558000 78 124 146
-0.025016 0.072973 0.557000 79 127 149
-0.024050 0.072842 0.556000 82 130 152
-0.023129 0.072842 0.556000 86 134 156
-0.022168 0.072711 0.555000 85 133 155
-0.021249 0.072711 0.555000 86 134 156
-0.020330 0.072711 0.555000 87 135 157
-0.019411 0.072711 0.555000 83 136 156
-0.018492 0.072711 0.555000 83 136 156
-0.017636 0.072973 0.557000 84 137 155
-0.016774 0.073235 0.559000 91 144 162
-0.015848 0.073235 0.559000 16 39 56
-0.033377 0.074029 0.558000 26 57 84
-0.032453 0.074029 0.558000 49 81 103
-0.031529 0.074029 0.558000 78 110 132
-0.030660 0.074162 0.559000 89 128 146
-0.029734 0.074162 0.559000 85 124 142
-0.028757 0.074029 0.558000 83 130 147
-0.027783 0.073897 0.557000 77 124 141
-0.026860 0.073897 0.557000 81 127 147
-0.025891 0.073764 0.556000 81 127 147
-0.024926 0.073631 0.555000 80 128 148
-0.024007 0.073631 0.555000 83 131 151
-0.023087 0.073631 0.555000 86 134 156
-0.022128 0.073499 0.554000 87 135 157
-0.021211 0.073499 0.554000 87 134 159
-0.020294 0.073499 0.554000 87 134 159
-0.019376 0.073499 0.554000 86 133 158
-0.018492 0.073631 0.555000 87 134 159
-0.017636 0.073897 0.557000 95 145 164
-0.016804 0.074295 0.560000 54 104 123
-0.033377 0.074955 0.558000 79 120 144
-0.032453 0.074955 0.558000 73 116 137
-0.031529 0.074955 0.558000 75 118 139
-0.030660 0.075089 0.559000 80 122 141
-0.029734 0.075089 0.559000 78 120 139
-0.028757 0.074955 0.558000 78 127 144
-0.027783 0.074820 0.557000 79 128 145
-0.026860 0.074820 0.557000 80 129 146
-0.025891 0.074686 0.556000 81 130 147
-0.024926 0.074552 0.555000 81 129 149
-0.024007 0.074552 0.555000 83 131 151
-0.023087 0.074552 0.555000 86 134 156
-0.022128 0.074417 0.554000 86 134 156
-0.021211 0.074417 0.554000 86 133 158
-0.020294 0.074417 0.554000 86 133 158
-0.019376 0.074417 0.554000 86 133 158
-0.018492 0.074552 0.555000 88 135 160
-0.017668 0.074955 0.558000 96 144 164
-0.033198 0.075472 0.555000 71 117 139
-0.032279 0.075472 0.555000 75 121 143
-0.031416 0.075608 0.556000 76 122 144
-0.030495 0.075608 0.556000 77 123 143
-0.029574 0.075608 0.556000 76 122 142
-0.028654 0.075608 0.556000 78 126 146
-0.027683 0.075472 0.555000 80 128 148
-0.026764 0.075472 0.555000 80 128 148
-0.025845 0.075472 0.555000 82 130 150
-0.024881 0.075336 0.554000 82 130 150
-0.023963 0.075336 0.554000 83 131 151
-0.023004 0.075200 0.553000 85 133 155
-0.022088 0.075200 0.553000 85 133 155
-0.021173 0.075200 0.553000 85 132 157
-0.020294 0.075336 0.554000 86 133 158
-0.019376 0.075336 0.554000 85 133 155
-0.018492 0.075472 0.555000 92 140 162
-0.033018 0.075980 0.552000 71 119 141
-0.032104 0.075980 0.552000 74 122 144
-0.031247 0.076117 0.553000 74 122 144
-0.030386 0.076255 0.554000 75 123 145
-0.029468 0.076255 0.554000 74 122 144
-0.028499 0.076117 0.553000 75 125 146
-0.027583 0.076117 0.553000 78 128 149
-0.026668 0.076117 0.553000 78 128 149
-0.025752 0.076117 0.553000 81 131 152
-0.024791 0.075980 0.552000 81 129 151
-0.023877 0.075980 0.552000 82 130 152
-0.022963 0.075980 0.552000 81 128 153
-0.022049 0.075980 0.552000 85 132 157
-0.021173 0.076117 0.553000 85 132 157
-0.020294 0.076255 0.554000 85 132 157
-0.019376 0.076255 0.554000 85 133 155
-0.018525 0.076530 0.556000 93 141 163
-0.032899 0.076616 0.550000 71 118 143
-0.031988 0.076616 0.550000 74 121 146
-0.031134 0.076756 0.551000 76 123 148
-0.030221 0.076756 0.551000 75 123 145
-0.029309 0.076756 0.551000 75 123 145
-0.028448 0.076895 0.552000 75 125 146
-0.027533 0.076895 0.552000 78 128 149
-0.026619 0.076895 0.552000 76 129 149
-0.025705 0.076895 0.552000 78 131 151
-0.024791 0.076895 0.552000 81 131 152
-0.023877 0.076895 0.552000 81 131 152
-0.022963 0.076895 0.552000 80 130 151
-0.022049 0.076895 0.552000 82 132 153
-0.021173 0.077034 0.553000 83 131 153
-0.020294 0.077174 0.554000 85 133 155
-0.019376 0.077174 0.554000 90 136 158
-0.018559 0.077591 0.557000 71 117 139
-0.032899 0.077528 0.550000 72 119 144
-0.031988 0.077528 0.550000 74 121 146
-0.031134 0.077669 0.551000 75 122 147
-0.030221 0.077669 0.551000 78 126 148
-0.029309 0.077669 0.551000 76 124 146
-0.028448 0.077810 0.552000 73 126 146
-0.027533 0.077810 0.552000 76 129 149
-0.026619 0.077810 0.552000 76 129 149
-0.025705 0.077810 0.552000 78 131 151
-0.024791 0.077810 0.552000 79 132 152
-0.023877 0.077810 0.552000 79 132 152
-0.022963 0.077810 0.552000 80 130 151
-0.022049 0.077810 0.552000 82 132 153
-0.021173 0.077951 0.553000 81 131 152
-0.020330 0.078233 0.555000 82 132 153
-0.019411 0.078233 0.555000 99 142 163
-0.018592 0.078656 0.558000 20 63 84
-0.032839 0.078298 0.549000 73 122 146
-0.031930 0.078298 0.549000 74 121 146
-0.031077 0.078440 0.550000 78 125 150
-0.030221 0.078583 0.551000 79 126 151
-0.029309 0.078583 0.551000 76 123 148
-0.028396 0.078583 0.551000 75 125 146
-0.027484 0.078583 0.551000 78 128 149
-0.026571 0.078583 0.551000 77 130 150
-0.025659 0.078583 0.551000 77 130 150
-0.024746 0.078583 0.551000 81 131 152
-0.023834 0.078583 0.551000 80 130 151
-0.022921 0.078583 0.551000 80 130 151
-0.022049 0.078726 0.552000 81 131 152
-0.021173 0.078868 0.553000 81 131 152
-0.020330 0.079154 0.555000 82 132 153
-0.019411 0.079154 0.555000 87 124 143
-0.032779 0.079064 0.548000 74 123 147
-0.031872 0.079064 0.548000 75 122 147
-0.031021 0.079208 0.549000 78 125 150
-0.030166 0.079353 0.550000 78 125 150
-0.029255 0.079353 0.550000 76 123 148
-0.028396 0.079497 0.551000 75 124 148
-0.027484 0.079497 0.551000 78 127 151
-0.026571 0.079497 0.551000 76 128 151
-0.025659 0.079497 0.551000 77 129 152
-0.024746 0.079497 0.551000 78 130 153
-0.023834 0.079497 0.551000 78 130 153
-0.022921 0.079497 0.551000 80 130 151
-0.022049 0.079641 0.552000 80 130 151
-0.021211 0.079930 0.554000 80 130 151
-0.020367 0.080218 0.556000 89 139 160
-0.019446 0.080218 0.556000 42 74 92
-0.032779 0.079973 0.548000 74 124 145
-0.031872 0.079973 0.548000 74 123 147
-0.031021 0.080119 0.549000 75 124 148
-0.030166 0.080265 0.550000 76 123 148
-0.029255 0.080265 0.550000 76 123 148
-0.028396 0.080411 0.551000 76 123 148
-0.027484 0.080411 0.551000 79 126 151
-0.026571 0.080411 0.551000 76 128 151
-0.025659 0.080411 0.551000 78 130 153
-0.024746 0.080411 0.551000 78 130 153
-0.023834 0.080411 0.551000 78 130 153
-0.022921 0.080411 0.551000 80 129 153
-0.022088 0.080702 0.553000 80 129 153
-0.021249 0.080994 0.555000 81 129 149
-0.020440 0.081432 0.558000 87 135 155
-0.031872 0.080881 0.548000 74 122 144
-0.031021 0.081029 0.549000 74 122 144
-0.030166 0.081177 0.550000 75 123 145
-0.029255 0.081177 0.550000 76 124 146
-0.028345 0.081177 0.550000 75 122 147
-0.027484 0.081324 0.551000 79 126 151
-0.026571 0.081324 0.551000 76 128 151
-0.025659 0.081324 0.551000 78 130 153
-0.024746 0.081324 0.551000 78 130 153
-0.023834 0.081324 0.551000 78 130 153
